# .PCD v0.7 - Point Cloud Data file format
VERSION 0.7
FIELDS x y z intensity t reflectivity ring ambient range
SIZE 4 4 4 4 4 2 1 2 4
TYPE F F F F U U U U U
COUNT 1 1 1 1 1 1 1 1 1
WIDTH 885
HEIGHT 1
VIEWPOINT 0 0 0 1 0 0 0
POINTS 885
DATA ascii
60.53223 32.752567 4.0539775 41 42598050 51 23 126 68940
61.453545 32.765213 4.1012654 32 42693770 41 23 130 69759
62.615891 32.893127 4.1641421 17 42791060 23 23 104 70848
0 0 0 3 42889330 0 23 65 0
0 0 0 3 42988360 0 23 86 0
30.004881 15.063685 2.0152395 3 43082280 1 23 83 33630
29.890017 14.777088 2.0019019 4 43180840 1 23 62 33399
0 0 0 2 43276650 0 23 67 0
28.191994 13.50963 1.8815175 9 43375840 2 23 80 31314
30.55514 14.412232 2.0273645 42 43475010 13 23 103 33840
30.161259 14.000848 1.9966477 14 43571520 4 23 107 33308
30.682478 14.014619 2.0243621 47 43667760 14 23 124 33788
31.222288 14.030289 2.0531735 28 43766380 8 23 119 34287
30.217543 13.356527 1.984234 8 43864720 2 23 117 33093
76.881844 33.421162 4.9218993 22 43959250 42 23 140 83972
77.514168 33.132038 4.948863 22 44057670 42 23 121 84439
78.686081 33.063423 5.0097194 14 44155980 28 23 173 85493
78.032097 32.226723 4.9561958 10 44253890 20 23 145 84566
35.32341 14.334964 2.2782373 26 44349290 10 23 129 38185
35.273457 14.063232 2.2696919 93 44447600 36 23 130 38037
35.515255 13.907693 2.279392 27 44547360 10 23 139 38205
84.428535 32.466682 5.3049927 10 44641180 24 23 232 90607
88.415352 33.378544 5.539237 11 44738190 30 23 279 94664
92.391121 34.233284 5.7719221 14 44837650 38 23 232 98694
100.81565 36.652901 6.2775364 4 44934490 14 23 166 107451
101.06498 36.043007 6.2791529 18 45029360 57 23 152 107479
101.37281 35.453186 6.2845802 15 45129570 48 23 136 107573
101.4789 34.792946 6.2778826 10 45227670 33 23 124 107457
102.11633 34.312725 6.303865 7 45322450 24 23 153 107907
102.0177 33.584358 6.2851577 8 45419860 27 23 152 107583
102.31496 32.987782 6.2908158 15 45518010 48 23 172 107681
102.98385 32.507221 6.3192234 18 45616940 58 23 207 108173
105.73579 32.663834 6.4738464 5 45710890 19 23 162 110851
108.89671 32.909748 6.6528349 7 45809250 27 23 190 113951
111.81369 33.043938 6.8166962 10 45909840 39 23 201 116789
0 0 0 3 46005000 0 23 232 0
120.85603 34.109322 7.336225 7 46102460 33 23 198 125787
122.21317 33.68412 7.4052224 7 46202330 33 23 235 126982
123.80675 33.307339 7.4884233 14 46300290 64 23 245 128423
127.85294 33.555992 7.7182794 7 46394840 37 23 239 132404
129.84473 33.228516 7.8250375 6 46493550 38 23 301 134253
131.98639 32.915043 7.9406872 6 46591460 39 23 355 136256
0 0 0 4 46687430 0 23 297 0
0 0 0 10 46783060 0 23 416 0
0 0 0 7 46883130 0 23 457 0
0 0 0 6 46981190 0 23 454 0
0 0 0 5 47074100 0 23 593 0
0 0 0 8 47173840 0 23 403 0
0 0 0 7 47272160 0 23 419 0
0 0 0 8 47369500 0 23 520 0
0 0 0 6 47465670 0 23 383 0
191.33728 35.418594 11.327441 7 47563880 90 23 353 194913
0 0 0 8 47663790 0 23 817 0
0 0 0 6 47757110 0 23 408 0
0 0 0 9 47856470 0 23 773 0
0 0 0 6 47956040 0 23 664 0
0 0 0 7 48053720 0 23 897 0
0 0 0 8 48148420 0 23 727 0
0 0 0 8 48247530 0 23 748 0
0 0 0 5 48345010 0 23 629 0
0 0 0 6 48438950 0 23 897 0
0 0 0 7 48537700 0 23 869 0
0 0 0 9 48636680 0 23 792 0
0 0 0 7 48735230 0 23 665 0
0 0 0 7 48829510 0 23 563 0
0 0 0 6 48929200 0 23 644 0
0 0 0 6 49026610 0 23 842 0
0 0 0 6 49122150 0 23 932 0
0 0 0 6 49219150 0 23 892 0
0 0 0 9 49317890 0 23 928 0
0 0 0 7 49416970 0 23 908 0
0 0 0 9 49511410 0 23 804 0
0 0 0 7 49610220 0 23 866 0
0 0 0 6 49709040 0 23 794 0
0 0 0 8 49805460 0 23 793 0
0 0 0 8 49901900 0 23 818 0
0 0 0 8 50001980 0 23 878 0
0 0 0 9 50099530 0 23 857 0
0 0 0 6 50194730 0 23 895 0
0 0 0 7 50292600 0 23 782 0
0 0 0 7 50388370 0 23 591 0
0 -0 0 6 50486700 0 23 766 0
0 -0 0 10 50586000 0 23 796 0
0 -0 0 7 50682490 0 23 704 0
0 -0 0 6 50779470 0 23 840 0
0 -0 0 8 50877110 0 23 822 0
0 -0 0 6 50977000 0 23 762 0
0 -0 0 7 51070120 0 23 851 0
0 -0 0 7 51169180 0 23 708 0
0 -0 0 9 51267670 0 23 778 0
0 -0 0 6 51365530 0 23 742 0
0 -0 0 6 51460920 0 23 265 0
0 -0 0 6 51560490 0 23 208 0
0 -0 0 9 51658680 0 23 190 0
0 -0 0 8 51753560 0 23 269 0
0 -0 0 6 51851300 0 23 170 0
30.163219 -2.8160753 1.8255692 17 51951690 4 23 69 30345
0 -0 0 187 52049250 43 23 93 0
30.175039 -3.1911564 1.8283983 52 52144550 12 23 76 30394
30.132071 -3.3736923 1.8270704 42 52243440 10 23 83 30371
30.146494 -3.5627332 1.829149 25 52342500 6 23 84 30407
30.156759 -3.7517083 1.8310543 39 52437140 9 23 66 30440
30.105453 -3.9330554 1.8294376 156 52535510 36 23 86 30412
0 -0 0 42 52633670 10 23 75 0
30.145842 -4.3152127 1.8347496 23 52732860 5 23 83 30504
30.123734 -4.5008402 1.8350383 30 52827570 7 23 70 30509
0 -0 0 3 52927210 0 23 84 0
0 -0 0 3 53026230 0 23 78 0
0 -0 0 5 53121670 0 23 59 0
0 -0 0 8 53217430 0 23 247 0
0 -0 0 4 53316810 0 23 81 0
12.782019 -2.3940337 0.82560009 4 53414010 1 23 146 13026
12.758267 -2.4707098 0.82508045 7 53509050 2 23 79 13017
12.67532 -2.5354376 0.82109654 19 53607090 6 23 51 12948
12.692766 -2.6200249 0.82305962 4 53707370 1 23 53 12982
12.721369 -2.7074146 0.8257156 10 53803670 3 23 61 13028
12.699641 -2.7843518 0.82542688 10 53899100 3 23 76 13023
12.653103 -2.8556304 0.82369477 5 53998360 1 23 60 12993
12.675214 -2.9424691 0.82606202 3 54096560 1 23 66 13034
12.853079 -3.0669866 0.83772516 33 54190820 10 23 64 13236
12.869894 -3.1545863 0.83986145 41 54289830 13 23 84 13273
12.846423 -3.2325208 0.83963048 26 54388720 8 23 87 13269
12.859213 -3.3197675 0.84159362 46 54484260 15 23 88 13303
12.860799 -3.4044828 0.84292161 30 54581470 10 23 89 13326
12.83774 -3.4828084 0.8428061 38 54679370 12 23 72 13324
12.828632 -3.5649881 0.8435567 36 54779710 11 23 87 13337
12.866052 -3.6605721 0.8471365 31 54873650 10 23 78 13399
12.862519 -3.7450287 0.84829122 37 54973030 12 23 104 13419
12.863218 -3.8310044 0.84973472 46 55072980 15 23 84 13444
12.876717 -3.9212003 0.85198647 34 55168910 11 23 65 13483
12.865759 -4.0042896 0.85279483 35 55264720 11 23 83 13497
12.859024 -4.0889044 0.85389185 35 55363090 11 23 78 13516
12.835591 -4.1683455 0.85400736 32 55462400 10 23 93 13518
12.826831 -4.2526793 0.85504663 37 55557240 12 23 110 13536
12.837377 -4.343781 0.85729843 15 55655860 5 23 96 13575
12.790665 -4.4156275 0.8560859 28 55754770 9 23 88 13554
12.788755 -4.5029774 0.85764486 31 55852490 10 23 70 13581
12.72142 -4.5671964 0.85521984 51 55947820 16 23 141 13539
12.70722 -4.6503134 0.8560859 69 56046990 22 23 94 13554
12.697156 -4.7351723 0.85724068 44 56146150 14 23 106 13574
12.74159 -4.8410001 0.86180198 10 56240300 3 23 51 13653
12.714438 -4.9201703 0.86197519 22 56339130 7 23 74 13656
12.660789 -4.9889431 0.86053175 21 56437520 7 23 83 13631
36.912624 -14.80658 2.3736787 24 56535830 10 23 233 39838
36.851578 -15.045244 2.3755839 35 56629980 15 23 281 39871
36.853527 -15.310527 2.381531 32 56729040 14 23 306 39974
28.386166 -11.997706 1.855824 24 56828930 6 23 304 30869
28.111155 -12.085306 1.8431793 80 56924020 19 23 256 30650
27.969694 -12.228373 1.8389645 46 57022490 11 23 254 30577
27.956171 -12.427336 1.8428906 54 57121170 12 23 264 30645
27.774769 -12.551361 1.8362508 87 57219680 20 23 235 30530
26.162216 -12.016533 1.7385576 38 57313620 8 23 193 28838
25.300949 -11.809492 1.6883253 38 57413010 8 23 199 27968
24.856373 -11.788269 1.6645372 55 57509030 11 23 225 27556
26.329636 -12.685412 1.7637893 22 57608020 5 23 196 29275
0 -0 0 13 57708060 0 23 201 0
0 -0 0 9 57803800 0 23 117 0
23.239618 -11.728593 1.5790268 27 57899640 5 23 212 26075
23.151222 -11.862773 1.5779876 45 57998020 9 23 182 26057
23.341932 -12.141889 1.5951935 16 58098370 3 23 146 26355
23.590992 -12.455947 1.6163834 40 58191910 8 23 197 26722
25.342682 -13.580288 1.7363635 23 58290970 5 23 159 28800
23.354797 -12.700154 1.6110138 36 58391340 7 23 197 26629
23.834112 -13.150915 1.6478508 19 58488140 4 23 186 27267
23.878414 -13.367131 1.6561651 17 58584190 3 23 129 27411
23.59454 -13.399025 1.6427698 44 58682700 9 23 181 27179
23.504095 -13.539062 1.6422502 37 58782690 7 23 161 27170
23.434372 -13.691082 1.6431741 19 58876380 4 23 147 27186
23.396305 -13.862094 1.6462919 44 58975070 9 23 135 27240
24.239313 -14.563224 1.7089379 38 59074960 8 23 169 28325
22.830534 -13.908209 1.6196167 48 59172170 9 23 206 26778
23.034409 -14.226919 1.6393056 53 59267410 11 23 172 27119
23.394297 -14.648251 1.669849 49 59366780 10 23 160 27648
23.236546 -14.748721 1.66523 32 59466540 6 23 187 27568
23.163242 -14.902363 1.6664425 57 59560630 12 23 191 27589
22.886553 -14.923702 1.6536824 37 59659150 7 23 173 27368
22.690441 -14.99505 1.6464651 67 59758610 14 23 183 27243
22.10113 -14.801248 1.6118798 44 59856850 9 23 192 26644
20.845118 -14.146157 1.5304689 26 59951260 5 23 256 25234
21.520502 -14.798143 1.5839922 37 60049770 7 23 244 26161
21.308065 -14.845451 1.575447 41 60149940 8 23 221 26013
21.106464 -14.898197 1.5676523 43 60244400 8 23 276 25878
20.308147 -14.522226 1.5174201 45 60341800 9 23 273 25008
20.323763 -14.722697 1.5249261 52 60441230 10 23 276 25138
20.282946 -14.883741 1.5285058 50 60539650 10 23 288 25200
20.086275 -14.9299 1.5209421 31 60635410 6 23 327 25069
17.718788 -13.339807 1.3562148 75 60733770 16 23 305 22216
19.516518 -14.881683 1.492939 35 60833120 7 23 309 24584
18.769011 -14.494701 1.4450163 35 60929180 7 23 331 23754
18.618382 -14.561622 1.4405127 30 61025510 6 23 285 23676
18.594421 -14.727654 1.4453627 46 61125150 9 23 283 23760
18.029421 -14.461074 1.4102001 37 61223290 7 23 320 23151
17.921753 -14.556322 1.4088143 43 61317360 8 23 285 23127
17.92 -14.738305 1.4153966 56 61416500 11 23 338 23241
16.21743 -13.505752 1.2940885 33 61517110 7 23 332 21140
17.462265 -14.724781 1.3945531 25 61613080 5 23 299 22880
17.046623 -14.554212 1.369841 52 61710060 11 23 279 22452
16.890535 -14.601082 1.36476 39 61808130 8 23 272 22364
16.697706 -14.614369 1.3568499 33 61908240 7 23 332 22227
16.308092 -14.451054 1.3336968 71 62002760 15 23 323 21826
15.723451 -14.106185 1.2951854 46 62100780 10 23 370 21159
15.273743 -13.872835 1.2668359 52 62200870 11 23 311 20668
15.116314 -13.900071 1.2611777 59 62297310 12 23 335 20570
15.103812 -14.060583 1.2669514 55 62393560 12 23 293 20670
15.036144 -14.170796 1.2684526 23 62492510 5 23 308 20696
14.963357 -14.276572 1.2696074 43 62592070 9 23 261 20716
14.879785 -14.372278 1.2699538 43 62688240 9 23 269 20722
14.758482 -14.431203 1.2672979 35 62786050 7 23 281 20676
14.350373 -14.205444 1.2413156 36 62886060 8 23 273 20226
14.259415 -14.289696 1.241027 23 62983880 5 23 245 20221
14.502966 -14.71321 1.2683371 26 63079450 5 23 229 20694
14.323266 -14.710369 1.2609466 39 63179010 8 23 238 20566
14.000893 -14.556939 1.2416043 33 63278970 7 23 287 20231
13.231233 -13.926783 1.1845012 24 63374140 5 23 318 19242
13.030755 -13.885408 1.1748011 30 63473430 7 23 296 19074
13.495064 -14.558132 1.2215692 26 63571860 5 23 263 19884
13.288171 -14.512548 1.2115227 19 63670560 4 23 291 19710
13.285261 -14.689323 1.2189709 32 63766150 7 23 265 19839
13.19621 -14.772052 1.2190864 30 63864710 7 23 293 19841
12.712964 -14.408093 1.1847899 29 63965820 6 23 357 19247
12.615135 -14.47529 1.1839815 25 64061440 6 23 361 19233
12.4616 -14.477518 1.1782655 23 64160350 5 23 349 19134
12.258077 -14.419082 1.1680458 40 64258990 9 23 359 18957
12.225865 -14.561305 1.1731267 32 64358350 7 23 352 19045
11.659616 -14.061224 1.1299385 40 64453140 10 23 363 18297
11.362485 -13.875299 1.1107117 28 64553140 7 23 385 17964
11.427802 -14.131056 1.1245688 19 64648440 5 23 354 18204
11.084824 -13.880296 1.1008384 33 64748140 8 23 299 17793
9.5324326 -12.087882 0.96382552 31 64848030 10 23 354 15420
9.430481 -12.110699 0.9612273 43 64944590 13 23 387 15375
10.5031 -13.660155 1.0700639 19 65040980 5 23 337 17260
9.0529642 -11.924953 0.93940222 21 65139520 6 23 404 14997
8.4886179 -11.32524 0.89205688 55 65240380 17 23 364 14177
8.7064028 -11.765514 0.92000216 29 65334070 9 23 370 14661
9.0616169 -12.403952 0.96192014 68 65432990 21 23 313 15387
8.3546371 -11.584831 0.89956284 44 65531820 14 23 370 14307
8.245182 -11.5822 0.89575213 52 65629140 16 23 304 14241
8.0907297 -11.514135 0.88738006 52 65724680 17 23 320 14096
7.9948931 -11.527468 0.88483959 54 65824050 17 23 326 14052
7.8428049 -11.45768 0.87652528 75 65922740 24 23 347 13908
7.7701187 -11.502277 0.87629431 95 66017890 30 23 309 13904
7.698288 -11.548077 0.8761788 74 66115040 24 23 274 13902
7.6338696 -11.605103 0.87687171 106 66215450 34 23 273 13914
7.5608878 -11.649213 0.87669849 86 66312990 28 23 335 13911
7.4747305 -11.672688 0.87513953 90 66408660 29 23 289 13884
7.3928361 -11.702295 0.87404251 82 66507570 26 23 340 13865
7.3082199 -11.727103 0.87265682 90 66607340 29 23 283 13841
7.330759 -11.925661 0.88310742 79 66702820 25 23 346 14022
7.3330169 -12.095053 0.89153719 44 66801840 14 23 287 14168
7.3800936 -12.342888 0.90522116 51 66899820 16 23 234 14405
7.1074691 -12.054276 0.88281876 70 66998560 22 23 338 14017
7.0444117 -12.116647 0.88408899 67 67093310 21 23 357 14039
7.0786657 -12.349321 0.89673364 55 67193300 17 23 296 14258
6.7660122 -11.973596 0.86890382 55 67292880 18 23 341 13776
6.6807561 -11.993954 0.86751807 45 67389490 15 23 278 13752
6.2928076 -11.4624 0.82975727 81 67486760 26 23 279 13098
6.6461411 -12.284007 0.8812598 26 67586530 8 23 326 13990
7.3940229 -13.868838 0.98247498 48 67684170 15 23 297 15743
7.2800002 -13.859151 0.97889519 49 67780180 15 23 233 15681
7.2264862 -13.964737 0.98287916 47 67878740 14 23 202 15750
6.9819732 -13.697514 0.96267074 53 67976760 16 23 264 15400
7.0012684 -13.946194 0.9760083 51 68072800 15 23 234 15631
6.9297233 -14.017528 0.97785592 47 68170330 14 23 234 15663
6.9156804 -14.207892 0.98738271 43 68269980 12 23 221 15828
6.7472615 -14.080804 0.97652793 59 68370460 18 23 222 15640
6.6526442 -14.104784 0.97543091 61 68464000 18 23 239 15621
6.2961035 -13.563995 0.93836296 25 68564400 7 23 226 14979
6.2202244 -13.618717 0.93940222 59 68663330 18 23 245 14997
6.2036557 -13.805967 0.94887131 53 68761250 16 23 221 15161
6.0905738 -13.779855 0.94482964 60 68857390 18 23 192 15091
6.1599369 -14.171289 0.96717435 26 68956720 8 23 221 15478
5.6851921 -13.301847 0.91012895 44 69055170 14 23 282 14490
5.640594 -13.424837 0.91567183 46 69149050 14 23 257 14586
5.9037623 -14.296114 0.96804041 42 69248300 13 23 233 15493
5.6593819 -13.946321 0.94396359 39 69349030 12 23 215 15076
5.4339418 -13.63025 0.92213851 27 69446050 8 23 273 14698
5.5103831 -14.072356 0.94754332 67 69541210 20 23 247 15138
5.3121347 -13.815178 0.92952901 46 69641230 14 23 258 14826
5.2678156 -13.954921 0.93616891 30 69739790 9 23 279 14941
5.2008219 -14.037533 0.93928677 39 69835580 12 23 238 14995
4.6950173 -12.915137 0.86826867 60 69933490 20 23 297 13765
4.8430529 -13.581241 0.90741521 47 70033780 14 23 254 14443
4.9056315 -14.028167 0.93299329 42 70130980 13 23 243 14886
4.7890277 -13.969233 0.92756587 54 70227310 16 23 248 14792
4.5098872 -13.422983 0.892461 33 70326550 11 23 308 14184
4.1901865 -12.729719 0.84857994 41 70425340 13 23 336 13424
4.1113868 -12.753289 0.84846449 80 70521230 26 23 331 13422
4.0273471 -12.760188 0.84736741 104 70619320 34 23 337 13403
3.9127319 -12.667336 0.84026563 92 70719460 30 23 354 13280
3.7731276 -12.486597 0.82790965 90 70817570 29 23 362 13066
3.6938937 -12.500896 0.82739002 73 70912430 24 23 378 13057
3.6068687 -12.48784 0.82525367 84 71010650 27 23 313 13020
3.5166185 -12.461696 0.82236677 128 71110460 41 23 289 12970
3.4278862 -12.438766 0.81971079 66 71207100 21 23 318 12924
3.3808067 -12.568503 0.82623523 125 71304300 40 23 258 13037
3.290952 -12.54073 0.82334828 83 71404640 27 23 301 12987
3.2154267 -12.566489 0.82369477 92 71503280 29 23 176 12993
3.0785916 -12.346723 0.8094334 93 71598480 30 23 268 12746
2.9846325 -12.29068 0.80498755 108 71698270 34 23 246 12669
2.9194973 -12.352482 0.80758578 139 71793860 44 23 246 12714
2.8740721 -12.502484 0.81543815 69 71893950 22 23 208 12850
2.8044891 -12.552035 0.81734353 79 71992550 25 23 217 12883
2.7335591 -12.597301 0.81901795 84 72089810 27 23 238 12912
2.6623845 -12.643143 0.82075012 92 72185170 29 23 153 12942
2.5236323 -12.359929 0.80308217 82 72283660 26 23 280 12636
2.4994771 -12.636667 0.81849831 89 72384150 28 23 202 12903
2.3787134 -12.426247 0.80521852 58 72477910 18 23 207 12673
2.3523948 -12.710563 0.82109654 68 72576360 22 23 140 12948
2.2511687 -12.595035 0.81347507 72 72677820 23 23 252 12816
2.1712999 -12.593853 0.81260902 97 72775710 31 23 234 12801
2.1005292 -12.646333 0.81491852 99 72872220 32 23 200 12841
2.029984 -12.703344 0.81751674 67 72971740 21 23 180 12886
1.9951826 -12.99679 0.83397216 40 73069900 13 23 113 13171
1.8506676 -12.569271 0.80827862 83 73166260 26 23 233 12726
1.7534357 -12.438038 0.79996431 96 73263780 31 23 253 12582
1.6813509 -12.480224 0.80181193 120 73362270 38 23 250 12614
1.6062691 -12.502188 0.80250478 131 73461280 42 23 213 12626
1.5475827 -12.659459 0.81110781 101 73556250 32 23 139 12775
1.4749409 -12.712351 0.81364828 70 73656390 22 23 143 12819
1.3740195 -12.512765 0.80152327 117 73756300 37 23 194 12609
1.2979372 -12.527911 0.80192739 102 73851210 33 23 210 12616
1.2189127 -12.51378 0.80065715 116 73950560 37 23 188 12594
1.1402014 -12.500145 0.79944468 108 74049090 34 23 186 12573
1.0639883 -12.512875 0.7997911 117 74147160 37 23 192 12579
0.98891813 -12.541062 0.80106133 50 74242970 16 23 106 12601
0.91600394 -12.602654 0.80429471 84 74342040 27 23 121 12657
0.83136535 -12.498463 0.79794347 79 74441930 25 23 189 12547
0.7479198 -12.391719 0.79147679 99 74537920 32 23 321 12435
0.67225003 -12.403053 0.79188097 75 74635010 24 23 233 12442
0.59872311 -12.460793 0.79499882 80 74734690 25 23 200 12496
0.52150089 -12.446277 0.79395956 92 74835360 29 23 232 12478
0.44369364 -12.409335 0.79165 84 74930050 27 23 203 12438
0.36479121 -12.319019 0.78628033 74 75028960 24 23 255 12345
0.28926668 -12.32402 0.78645355 76 75128880 24 23 305 12348
0.21150944 -12.202787 0.77935177 80 75225610 26 23 353 12225
0.13677637 -12.216832 0.78010237 102 75322160 33 23 335 12238
0.061827999 -12.220437 0.78027558 84 75421740 27 23 314 12241
-0.013151183 -12.215594 0.77998686 69 75521890 22 23 314 12236
-0.08831922 -12.245233 0.78171903 70 75615680 22 23 269 12266
-0.16533944 -12.386211 0.78991783 88 75714560 28 23 295 12408
-0.24372417 -12.507735 0.79701966 93 75814450 30 23 210 12531
-0.32421917 -12.652711 0.80550718 86 75910440 27 23 218 12678
-0.40273505 -12.678423 0.80712384 102 76007150 33 23 159 12706
-0.48082307 -12.683694 0.80758578 82 76106400 26 23 191 12714
-0.5621956 -12.761292 0.81226259 48 76206480 15 23 218 12795
-0.63978654 -12.743643 0.81145424 58 76300700 18 23 247 12781
-0.72391844 -12.845133 0.8175745 80 76399890 25 23 200 12887
-0.80377936 -12.857388 0.81855601 92 76500980 29 23 174 12904
-0.8899706 -12.958784 0.82473403 69 76598440 22 23 192 13011
-0.97326559 -13.003853 0.82767868 110 76693480 35 23 186 13062
-1.0572276 -13.04938 0.83068109 81 76793390 26 23 181 13114
-1.1450788 -13.132157 0.83587754 68 76893530 22 23 204 13204
-1.2392741 -13.271004 0.84436506 79 76987680 25 23 171 13351
-1.3219657 -13.276065 0.84511566 84 77085820 27 23 204 13364
-1.4199876 -13.424565 0.85423827 91 77184750 29 23 217 13522
-1.5209916 -13.582278 0.86393833 48 77283870 15 23 181 13690
-1.6501087 -13.96034 0.88651401 84 77379680 26 23 135 14081
-1.6890312 -13.574479 0.86463118 57 77478990 18 23 258 13702
-1.738929 -13.30846 0.84973472 92 77579230 30 23 275 13444
-1.8548069 -13.547784 0.86434251 49 77674830 16 23 194 13697
-1.934222 -13.510453 0.86284131 55 77772590 18 23 238 13671
-2.0160515 -13.49142 0.86243713 83 77872430 27 23 260 13664
-2.1164553 -13.592237 0.86907703 109 77969950 35 23 172 13779
-2.2046044 -13.60856 0.8708092 95 78065000 31 23 195 13809
-2.2931988 -13.625296 0.87259907 70 78165000 22 23 214 13840
-2.3765872 -13.609984 0.87254131 89 78264440 28 23 179 13839
-2.4595187 -13.592198 0.8723681 77 78360830 24 23 240 13836
-2.5206385 -13.458117 0.86538178 74 78458370 24 23 263 13715
-2.5919721 -13.38457 0.86197519 67 78559480 22 23 346 13656
-2.6548631 -13.272477 0.85631686 72 78657770 23 23 308 13558
-2.7632904 -13.386952 0.86405379 60 78751640 19 23 203 13692
-2.8684425 -13.478134 0.87046272 73 78851400 23 23 139 13803
-2.9297123 -13.362761 0.86468893 91 78947030 29 23 191 13703
-3.0125284 -13.34843 0.86491984 92 79046950 30 23 161 13707
-3.1424537 -13.536832 0.87721813 53 79147710 17 23 105 13920
-3.2087741 -13.447378 0.87306094 55 79244660 17 23 174 13848
-3.3152263 -13.52537 0.87889254 41 79341370 13 23 137 13949
-3.4251912 -13.612239 0.88530147 48 79439980 15 23 121 14060
-3.4662323 -13.426636 0.87548596 79 79538250 25 23 204 13890
-3.7046256 -13.99479 0.91076404 60 79633410 18 23 111 14501
-3.7946081 -13.987212 0.91168785 63 79731950 19 23 126 14517
-3.7948358 -13.65586 0.8932116 37 79830720 11 23 109 14197
-3.9241731 -13.792677 0.90285391 30 79927550 9 23 94 14364
-4.0304956 -13.843105 0.90735751 42 80022890 13 23 89 14442
-4.1068115 -13.78941 0.90562534 23 80121810 7 23 58 14412
-4.18611 -13.74676 0.90458608 37 80220730 11 23 73 14394
-4.276906 -13.741788 0.90585631 20 80316410 6 23 72 14416
-4.7495384 -14.936888 0.97999221 15 80415550 4 23 78 15700
-5.0137596 -15.439199 1.0123256 18 80514790 5 23 75 16260
-4.5765581 -13.803826 0.9145748 26 80612760 8 23 75 14567
-4.7018042 -13.895585 0.92190754 25 80708570 7 23 98 14694
-4.7908864 -13.877798 0.92260039 20 80807690 6 23 90 14706
-4.881916 -13.865091 0.92363971 28 80908220 8 23 95 14724
-4.9874744 -13.892192 0.92716169 28 81004790 8 23 73 14785
-5.4969878 -15.021062 0.99858397 15 81102220 4 23 98 16022
-5.120604 -13.730788 0.92104149 24 81202360 7 23 115 14679
-5.3926644 -14.193736 0.95164275 16 81300700 5 23 112 15209
-5.2054963 -13.451841 0.90770394 24 81395940 7 23 168 14448
-5.3033075 -13.458658 0.91012895 31 81496390 9 23 155 14490
-5.4173794 -13.504623 0.91503668 69 81595480 21 23 125 14575
-5.5201392 -13.520115 0.91809684 24 81691920 7 23 118 14628
-5.7462354 -13.830796 0.93969095 16 81789280 5 23 85 15002
-5.4186335 -12.819609 0.8784306 23 81888670 7 23 187 13941
-5.3722024 -12.495376 0.86012757 64 81989550 21 23 298 13624
-5.4587693 -12.485045 0.86157107 59 82084500 19 23 286 13649
-6.0660872 -13.645472 0.93715042 53 82184090 16 23 185 14958
-6.2882409 -13.914582 0.95660824 54 82284230 16 23 143 15295
-6.3568339 -13.839448 0.95429873 33 82380720 10 23 163 15255
-6.4272752 -13.769424 0.9523356 50 82478650 15 23 235 15221
-6.5338864 -13.776634 0.955338 56 82577950 17 23 234 15273
-6.6568594 -13.81633 0.9604767 48 82677780 15 23 272 15362
-7.1948042 -14.701537 1.0201204 48 82771690 13 23 230 16395
-7.106708 -14.298615 0.99696732 39 82869640 11 23 260 15994
-7.1655231 -14.197699 0.99327207 27 82967820 8 23 250 15930
-7.5065303 -14.649243 1.02549 42 83064120 12 23 187 16488
-7.7533698 -14.904926 1.0451788 42 83159500 12 23 156 16829
-7.881968 -14.927698 1.0497978 21 83258840 5 23 142 16909
-7.9503098 -14.835937 1.0469686 32 83358250 9 23 186 16860
-8.0864983 -14.870195 1.0524538 40 83453290 10 23 171 16955
-8.1264658 -14.727642 1.0463336 37 83553410 10 23 240 16849
-8.2000999 -14.647882 1.0443704 41 83652470 12 23 298 16815
-8.5328608 -15.025278 1.0728353 33 83750540 8 23 214 17308
-8.6094456 -14.945821 1.0710455 32 83846200 8 23 227 17277
-8.6632204 -14.828062 1.0667151 54 83945190 14 23 305 17202
-8.8685369 -14.96788 1.0797062 49 84045550 13 23 239 17427
-9.0666361 -15.090325 1.091658 37 84141020 9 23 222 17634
-9.1606159 -15.036967 1.0918312 54 84239160 14 23 216 17637
-9.1834621 -14.868356 1.0842098 62 84338520 16 23 257 17505
-9.2925329 -14.840497 1.0861729 51 84435960 13 23 233 17539
-9.3684387 -14.759599 1.0845562 42 84531550 11 23 212 17511
-9.4474821 -14.684206 1.0833437 36 84631600 9 23 235 17490
-9.4774237 -14.533972 1.0769925 45 84730660 12 23 272 17380
-9.6313715 -14.573828 1.0838057 49 84827200 12 23 236 17498
-9.7206135 -14.514457 1.0838057 45 84925380 11 23 184 17498
-9.839201 -14.498322 1.0868658 57 85023530 14 23 207 17551
-9.9019566 -14.399836 1.0842098 54 85122020 14 23 223 17505
-10.139643 -14.553422 1.0993372 22 85217060 5 23 156 17767
-10.14585 -14.373483 1.091023 43 85316950 11 23 236 17623
-10.313408 -14.422213 1.0989331 53 85417040 13 23 147 17760
-10.512981 -14.512274 1.1099033 20 85513600 5 23 120 17950
-9.7064667 -13.227282 1.0223721 24 85611830 7 23 209 16434
-9.761837 -13.13302 1.0198894 48 85711980 13 23 252 16391
-9.8500414 -13.083244 1.02064 53 85811670 15 23 294 16404
-10.431947 -13.680688 1.068505 63 85907380 17 23 279 17233
-10.422336 -13.495528 1.059671 59 86007390 16 23 312 17080
-10.563374 -13.506031 1.0651562 60 86103490 16 23 284 17175
-10.378278 -13.102876 1.0402132 69 86203670 19 23 291 16743
-10.435369 -13.010134 1.038077 81 86302920 22 23 268 16706
-10.532624 -12.967557 1.0396936 53 86400570 15 23 253 16734
-10.646236 -12.944324 1.0428115 54 86497510 15 23 235 16788
-10.771459 -12.93399 1.0469686 61 86597610 17 23 210 16860
-10.873141 -12.894368 1.0489894 52 86697170 14 23 197 16895
-10.987059 -12.868409 1.0521073 26 86790880 7 23 165 16949
-10.877786 -12.583234 1.0354787 43 86889530 12 23 228 16661
-10.856825 -12.404316 1.0268757 52 86989560 15 23 281 16512
-11.400164 -12.86499 1.0676389 27 87086710 7 23 166 17218
-11.395555 -12.701907 1.0604217 49 87182910 13 23 229 17093
-11.682694 -12.86232 1.078436 25 87282910 6 23 171 17405
-11.657333 -12.677222 1.0695443 44 87382490 11 23 215 17251
-12.125348 -13.024893 1.102686 46 87477460 11 23 130 17825
-12.250914 -12.998926 1.1065545 24 87575430 6 23 124 17892
-12.262908 -12.852723 1.1008961 48 87674060 12 23 157 17794
-12.314491 -12.749232 1.0986444 45 87770800 11 23 228 17755
-12.693304 -12.981086 1.1235296 35 87865640 8 23 160 18186
-12.871742 -13.002998 1.1316707 31 87965800 7 23 155 18327
-12.921605 -12.894156 1.1292456 27 88065090 6 23 216 18285
-13.051669 -12.865089 1.1334028 40 88160080 9 23 252 18357
-13.151819 -12.805657 1.1351349 33 88258450 8 23 231 18387
-13.243817 -12.737867 1.136232 43 88357690 10 23 270 18406
-13.925335 -13.229857 1.1843857 20 88456100 4 23 213 19240
-13.719435 -12.874989 1.1616368 30 88550370 7 23 277 18846
-13.738873 -12.73559 1.15696 36 88649860 8 23 279 18765
-13.993466 -12.812859 1.1708173 29 88749640 6 23 243 19005
-13.983713 -12.647064 1.1639464 46 88845640 11 23 294 18886
-14.137734 -12.629531 1.1698934 22 88943170 5 23 265 18989
-17.998241 -15.880891 1.4617026 17 89042810 3 23 174 24043
-18.196198 -15.858051 1.4694395 17 89141430 3 23 196 24177
-17.707533 -15.241998 1.4247501 16 89236510 3 23 244 23403
-17.91025 -15.226176 1.4330645 23 89336680 4 23 228 23547
-19.125708 -16.058399 1.5178242 21 89436420 4 23 166 25015
-19.11245 -15.848341 1.5094522 19 89533830 3 23 188 24870
-19.301247 -15.806043 1.516323 22 89631230 4 23 174 24989
-19.407959 -15.695476 1.5170736 30 89729790 6 23 219 25002
-19.500778 -15.573604 1.5168427 24 89830200 4 23 225 24998
-19.603024 -15.45922 1.5173624 31 89924140 6 23 217 25007
-19.722715 -15.358275 1.51921 33 90023780 6 23 208 25039
-20.053215 -15.418924 1.5364736 14 90123650 2 23 196 25338
-19.840525 -15.062571 1.5141867 26 90219640 5 23 217 24952
-0 -0 0 9 90316650 0 23 150 0
-21.403339 -15.838833 1.6134388 18 90417090 3 23 134 26671
-21.617008 -15.792603 1.6218108 24 90516460 5 23 104 26816
-21.66573 -15.625211 1.6184043 21 90612490 4 23 113 26757
-21.417181 -15.24706 1.593981 21 90710090 4 23 189 26334
-22.053514 -15.49707 1.6323769 17 90810200 3 23 107 26999
-22.228579 -15.417221 1.6380353 18 90907840 3 23 181 27097
-22.293926 -15.260801 1.6360145 17 91004020 3 23 134 27062
-22.403688 -15.134898 1.6371692 23 91102440 4 23 143 27082
-21.441198 -14.293842 1.5638416 18 91202650 3 23 247 25812
-22.862129 -15.039345 1.6561651 21 91297370 4 23 193 27411
-22.906248 -14.867801 1.652874 27 91395680 5 23 257 27354
-23.090363 -14.786733 1.6592829 21 91494070 4 23 235 27465
-22.995823 -14.527997 1.6466383 29 91592630 6 23 268 27246
-23.107407 -14.400881 1.6481972 35 91689480 7 23 284 27273
-23.089024 -14.193471 1.64098 40 91788770 8 23 296 27148
-23.200436 -14.066543 1.6426543 34 91887650 7 23 326 27177
-23.301733 -13.933146 1.6436937 22 91983570 4 23 319 27195
-24.32156 -14.341114 1.7064551 36 92082110 8 23 346 28282
-24.314161 -14.136411 1.7001039 22 92181830 5 23 315 28172
-23.658182 -13.561456 1.6506222 32 92279460 7 23 351 27315
-23.643604 -13.361026 1.6441555 27 92375030 5 23 341 27203
-23.762644 -13.23659 1.6466383 17 92474670 3 23 331 27246
-23.917797 -13.131376 1.651546 23 92574880 5 23 401 27331
-23.802118 -12.878427 1.6386704 22 92670340 4 23 322 27108
-23.897429 -12.741061 1.6397674 16 92768460 3 23 298 27127
-23.981342 -12.59744 1.6401716 18 92868400 4 23 291 27134
-27.852098 -14.413483 1.8872336 24 92966710 6 23 282 31413
-30.145807 -15.366754 2.0304246 19 93060900 6 23 370 33893
-30.267187 -15.195379 2.0322144 28 93160920 9 23 383 33924
-0 -0 0 13 93257480 0 23 339 0
-33.137085 -16.130178 2.2049673 38 93355140 14 23 227 36916
-33.440701 -16.024918 2.2181318 22 93455360 8 23 261 37144
-33.466164 -15.785355 2.2135127 42 93553530 16 23 308 37064
-35.818943 -16.627245 2.3573964 14 93649570 6 23 285 39556
-35.754116 -16.331244 2.3468304 31 93748770 13 23 269 39373
-36.331718 -16.326391 2.3771429 20 93848560 9 23 271 39898
-36.957157 -16.335642 2.4104002 36 93941850 16 23 259 40474
-37.241638 -16.188967 2.4220634 30 94041190 14 23 311 40676
-38.119644 -16.293285 2.4710832 26 94140430 12 23 204 41525
-38.279644 -16.084606 2.4748938 29 94236350 13 23 206 41591
-38.406223 -15.861238 2.4766836 21 94332210 10 23 244 41622
-38.32336 -15.552451 2.4654825 34 94431350 16 23 312 41428
-38.916977 -15.515929 2.4965456 30 94529820 14 23 280 41966
-39.008659 -15.275755 2.4963725 14 94625310 7 23 310 41963
-12.05872 -4.6366839 0.82069236 45 94723920 14 23 189 12941
-0 -0 0 2 94823160 0 23 50 0
-0 -0 0 2 94921250 0 23 44 0
-0 -0 0 3 95016420 0 23 51 0
-0 -0 0 2 95115230 0 23 50 0
-12.019995 -4.2033019 0.80995303 2 95215320 0 23 41 12755
-12.038005 -4.1268792 0.80949116 9 95311450 3 23 50 12747
-0 -0 0 3 95408970 0 23 46 0
-12.082052 -3.9769704 0.80914468 18 95508240 6 23 60 12741
-12.098625 -3.9003105 0.8086828 12 95605930 4 23 50 12733
-12.098529 -3.8184886 0.80723935 9 95701340 3 23 61 12708
-12.127454 -3.7459495 0.80758578 10 95801250 3 23 50 12714
-12.152122 -3.6720438 0.80770123 10 95899740 3 23 69 12716
-12.151446 -3.5906203 0.80631554 8 95996100 2 23 60 12692
-12.135844 -3.5051873 0.80406374 10 96093650 3 23 65 12653
-12.183064 -3.4379787 0.80562264 9 96192390 3 23 62 12680
-12.181794 -3.357059 0.80429471 10 96291830 3 23 49 12657
-12.170349 -3.2736909 0.80238932 11 96385910 3 23 62 12624
-12.197932 -3.2009809 0.8028512 14 96486180 4 23 44 12632
-12.180592 -3.1166701 0.80065715 13 96586070 4 23 61 12594
-12.201423 -3.0423558 0.80077267 14 96681630 4 23 49 12596
-12.194637 -2.9613059 0.79927146 22 96778350 7 23 67 12570
-12.206749 -2.8850472 0.79892504 11 96877160 3 23 63 12564
-12.206708 -2.8060672 0.79788572 13 96977320 4 23 56 12546
-12.19739 -2.7252367 0.79632682 19 97071140 6 23 59 12519
-12.216809 -2.6509788 0.79650003 11 97169930 3 23 61 12522
-12.170323 -2.5627999 0.79280478 11 97269860 3 23 62 12458
-12.065508 -2.463506 0.78570294 105 97366400 33 23 260 12335
-12.378119 -2.4483271 0.80325538 25 97463340 8 23 130 12639
-12.474292 -2.3879125 0.80804765 10 97563330 3 23 118 12722
-0 -0 0 6 97661950 0 23 102 0
-0 -0 0 6 97757920 0 23 263 0
-13.818697 -2.3825231 0.88449311 21 97855960 7 23 342 14046
-14.220095 -2.36199 0.9071843 80 97955460 25 23 312 14439
-14.682868 -2.3463879 0.93345517 30 98052160 9 23 102 14894
-15.008806 -2.3041315 0.95170051 6 98148020 2 23 195 15210
-0 -0 0 7 98248040 0 23 198 0
-0 -0 0 10 98346930 0 23 195 0
-17.296566 -2.3304062 1.0828818 7 98441460 2 23 202 17482
-0 -0 0 8 98539280 0 23 245 0
-0 -0 0 5 98638660 0 23 227 0
-0 -0 0 4 98734830 0 23 244 0
-0 -0 0 7 98830990 0 23 263 0
-0 -0 0 6 98930030 0 23 256 0
-0 -0 0 4 99028970 0 23 246 0
-0 -0 0 6 99125520 0 23 262 0
-27.773161 -2.3621957 1.6855539 20 99221850 4 23 308 27920
-0 -0 0 6 99322440 0 23 868 0
-0 -0 0 6 99420050 0 23 916 0
-0 -0 0 6 99513740 0 23 994 0
-0 -0 0 7 99612390 0 23 865 0
-0 -0 0 5 99712930 0 23 629 0
-0 -0 0 6 99808490 0 23 678 0
-0 -0 0 8 99907780 0 23 800 0
-0 0 0 7 0 0 24 1096 0
-0 0 0 7 96190 0 24 1033 0
-0 0 0 11 196100 0 24 1068 0
-0 0 0 10 295790 0 24 1026 0
-0 0 0 8 390680 0 24 1022 0
-0 0 0 7 489170 0 24 1086 0
-0 0 0 9 585550 0 24 1088 0
-0 0 0 7 684690 0 24 1166 0
-0 0 0 9 783760 0 24 1305 0
-0 0 0 5 879120 0 24 1089 0
-0 0 0 9 976410 0 24 1012 0
-0 0 0 8 1075180 0 24 1185 0
-0 0 0 7 1174620 0 24 1047 0
-0 0 0 8 1268110 0 24 1007 0
-0 0 0 9 1366970 0 24 1017 0
-0 0 0 6 1465510 0 24 859 0
-0 0 0 6 1563000 0 24 875 0
-0 0 0 7 1657980 0 24 865 0
-0 0 0 7 1758480 0 24 876 0
-0 0 0 6 1857040 0 24 835 0
-0 0 0 7 1951310 0 24 889 0
-0 0 0 7 2048920 0 24 794 0
-0 0 0 6 2147980 0 24 574 0
-0 0 0 11 2245470 0 24 965 0
-0 0 0 8 2341210 0 24 1279 0
-0 0 0 12 2439650 0 24 1365 0
-0 0 0 8 2539660 0 24 1296 0
-0 0 0 8 2633780 0 24 1198 0
-0 0 0 8 2732040 0 24 1084 0
-0 0 0 10 2831460 0 24 533 0
-0 0 0 5 2928820 0 24 411 0
-0 0 0 8 3024030 0 24 675 0
-0 0 0 7 3123800 0 24 937 0
-0 0 0 7 3223940 0 24 837 0
-0 0 0 6 3319550 0 24 861 0
-0 0 0 7 3416790 0 24 952 0
-105.36569 24.997047 5.6161876 478 3515560 170 24 1029 108432
-105.76534 25.778362 5.6454258 2926 3615270 255 24 506 109004
-105.73693 26.459812 5.6523776 3878 3708080 255 24 977 109140
-105.71768 27.145361 5.6600451 2901 3808230 255 24 728 109290
-105.69207 27.83116 5.6676102 2898 3907410 255 24 458 109438
-105.69479 28.526512 5.6769133 3283 4004050 255 24 344 109620
-0 0 0 1263 4100040 213 24 713 0
-0 0 0 8 4199790 37 24 805 0
-0 0 0 13 4297830 53 24 878 0
-0 0 0 11 4391890 0 24 664 0
-0 0 0 9 4491350 0 24 815 0
-0 0 0 7 4589590 0 24 911 0
-0 0 0 6 4687160 0 24 540 0
-114.79263 37.11348 6.2484398 12 4781800 49 24 268 120801
-113.58403 37.494064 6.1956882 14 4882240 59 24 293 119769
-113.24678 38.154903 6.1900144 19 4980700 78 24 341 119658
-113.0672 38.868534 6.1930814 16 5075180 67 24 387 119718
-112.84731 39.56884 6.1942058 18 5173450 74 24 385 119740
-114.98629 41.112865 6.3237844 14 5273420 62 24 524 122275
-0 0 0 10 5369710 0 24 843 0
-0 0 0 7 5465270 0 24 988 0
-112.85663 42.71022 6.2497177 8 5564930 41 24 763 120826
-112.6586 43.427395 6.2533469 8 5663020 37 24 423 120897
-112.37328 44.111271 6.2524266 10 5758110 45 24 506 120879
-0 0 0 7 5855450 0 24 653 0
-102.67071 41.763802 5.7466865 21 5955270 75 24 370 110985
-102.35162 42.367783 5.7433128 19 6051960 68 24 270 110919
-102.11458 43.00547 5.7446928 17 6147690 62 24 281 110946
-95.55587 40.935379 5.3942938 13 6246430 42 24 327 104091
-94.812149 41.307121 5.3668957 16 6344540 50 24 304 103555
-91.258766 40.42704 5.1822653 22 6438930 62 24 293 99943
-91.076378 41.016579 5.1860476 25 6536720 69 24 304 100017
-90.556015 41.452431 5.1710196 42 6636670 101 24 263 99723
-90.245636 41.982018 5.1679525 19 6734030 54 24 384 99663
-82.497643 38.995174 4.7439976 20 6829620 48 24 324 91369
-85.150284 40.890118 4.9082842 18 6928750 46 24 283 94583
-83.512787 40.736237 4.8294125 26 7028400 61 24 255 93040
-83.378494 41.305969 4.8361087 21 7123680 50 24 219 93171
-75.851486 38.15847 4.4194632 33 7220120 65 24 315 85020
-75.051163 38.334694 4.3870044 38 7320140 73 24 299 84385
-75.06366 38.923664 4.4013681 39 7418160 74 24 267 84666
-74.579506 39.255127 4.38726 40 7512490 77 24 301 84390
-0 0 0 15 7611610 0 24 345 0
-67.833977 36.774628 4.0229063 20 7708040 34 24 313 77262
-67.371674 37.060673 4.0091562 19 7806480 32 24 287 76993
-63.283245 35.319168 3.7829173 36 7905570 52 24 360 72567
-63.302593 35.841133 3.7968719 48 8002640 70 24 283 72840
-63.1092 36.244793 3.7985077 41 8098500 60 24 314 72872
-62.918407 36.650444 3.8004501 47 8198970 69 24 322 72910
-62.487694 36.914917 3.7882843 52 8297550 75 24 327 72672
-61.95245 37.113388 3.7699339 39 8393050 56 24 302 72313
-61.677467 37.464825 3.7671735 63 8489810 89 24 333 72259
-61.471085 37.857754 3.768656 43 8587380 62 24 314 72288
-58.743679 36.67709 3.6181707 21 8685260 28 24 271 69344
-58.547062 37.055534 3.6199598 41 8780170 52 24 244 69379
-57.636883 36.976727 3.578505 49 8879710 61 24 248 68568
-57.778141 37.569771 3.601047 20 8978930 25 24 144 69009
-37.728127 24.863043 2.3862274 21 9074020 11 24 96 45243
-37.226875 24.86167 2.36481 3 9171790 2 24 54 44824
-36.91069 24.979353 2.3547401 3 9271480 2 24 58 44627
-0 0 0 2 9367860 0 24 54 0
-0 0 0 2 9461880 0 24 40 0
-35.216408 24.789925 2.2778618 2 9560760 1 24 36 43123
-34.982327 24.947554 2.2727501 4 9659730 2 24 46 43023
-34.562256 24.969318 2.255933 16 9755900 8 24 73 42694
-34.098114 24.953844 2.2362535 28 9853460 13 24 77 42309
-33.598572 24.906265 2.2142227 24 9953530 11 24 70 41878
-33.256641 24.970436 2.2021592 27 10050610 12 24 95 41642
-32.757797 24.911655 2.179975 18 10144070 8 24 68 41208
-32.330566 24.901331 2.1622889 25 10243720 11 24 76 40862
-31.773989 24.784744 2.1361175 29 10342050 13 24 85 40350
-31.661282 25.010811 2.1387246 24 10438040 10 24 63 40401
-31.186699 24.948202 2.1177158 21 10534910 9 24 71 39990
-30.672186 24.846775 2.0939469 21 10634290 9 24 90 39525
-30.384026 24.923664 2.0850017 37 10732080 15 24 72 39350
-30.010038 24.926491 2.0703313 31 10826730 12 24 79 39063
-29.608891 24.901888 2.0537698 30 10926490 12 24 83 38739
-29.310308 24.959425 2.0440068 30 11024780 12 24 73 38548
-28.826834 24.854464 2.0217202 32 11121740 12 24 90 38112
-28.51203 24.889668 2.0107303 52 11217480 20 24 106 37897
-28.188158 24.913351 1.9990759 48 11317370 18 24 93 37669
-27.772791 24.851423 1.9810832 41 11414910 15 24 90 37317
-27.563534 24.970407 1.9771984 32 11507300 12 24 101 37241
-27.178692 24.927101 1.9611479 41 11607140 15 24 78 36927
-26.971806 25.043791 1.9574165 24 11705360 9 24 95 36854
-26.559309 24.965988 1.9392704 35 11802450 12 24 80 36499
-0 0 0 88 11898450 30 24 110 0
-0 0 0 127 11998520 43 24 124 0
-0 0 0 117 12097460 39 24 108 0
-25.230083 24.910698 1.8883078 116 12191870 38 24 125 35502
-24.765261 24.753683 1.8657658 1234 12289670 158 24 246 35061
-24.949869 25.246138 1.8903013 22 12388750 7 24 164 35541
-24.863558 25.469501 1.8953619 38 12485970 12 24 180 35640
-24.935577 25.85882 1.9122301 61 12581510 21 24 163 35970
-24.882517 26.122698 1.9201019 53 12681200 18 24 175 36124
-24.891481 26.455267 1.9327786 82 12779610 29 24 175 36372
-24.959846 26.856224 1.950158 25 12874720 9 24 146 36712
-24.832411 27.050068 1.9530206 30 12972010 11 24 147 36768
-24.74781 27.292187 1.9592566 859 13071560 145 24 252 36890
-31.332817 34.983265 2.4773159 88 13169920 51 24 146 47025
-31.4888 35.594494 2.5059919 48 13264330 29 24 125 47586
-31.399914 35.93594 2.5161128 79 13363790 48 24 123 47784
-31.272781 36.236805 2.5234735 101 13463210 62 24 158 47928
-30.823751 36.162746 2.5056341 110 13558170 66 24 209 47579
-30.769791 36.551373 2.5190265 90 13655560 55 24 166 47841
-30.422352 36.592037 2.5092123 76 13755420 46 24 178 47649
-30.612354 37.283581 2.5426931 58 13854160 36 24 147 48304
-28.205437 34.785141 2.36573 42 13949630 22 24 240 44842
-27.947773 34.902981 2.3621519 84 14048050 44 24 244 44772
-27.627165 34.939846 2.353411 77 14146530 40 24 229 44601
-27.340347 35.016609 2.3474305 64 14242720 33 24 253 44484
-26.954241 34.962246 2.333118 81 14339160 42 24 278 44204
-26.816637 35.228691 2.3396609 80 14438680 42 24 288 44332
-26.667774 35.482784 2.345437 87 14537090 46 24 272 44445
-26.457291 35.656174 2.3461015 65 14632000 34 24 253 44458
-27.84918 38.017288 2.4856479 67 14730540 39 24 206 47188
-27.640551 38.222248 2.4878459 45 14826980 26 24 243 47231
-26.209045 36.715054 2.3824449 33 14926300 18 24 181 45169
-26.17828 37.151932 2.3997731 40 15026620 22 24 175 45508
-24.52142 35.258015 2.271728 74 15122450 36 24 172 43003
-24.096067 35.103985 2.2528663 62 15218940 30 24 196 42634
-23.928391 35.322281 2.2572622 76 15317680 37 24 171 42720
-23.741734 35.514103 2.2600734 92 15415350 44 24 139 42775
-23.476631 35.588249 2.2557287 57 15509530 27 24 170 42690
-23.280161 35.765949 2.2578244 65 15608400 31 24 124 42731
-22.921576 35.692154 2.2446876 58 15707540 28 24 116 42474
-22.654037 35.756199 2.2400873 70 15803250 33 24 195 42384
-22.481323 35.969902 2.2446365 96 15899690 46 24 170 42473
-22.286398 36.149673 2.2471924 78 15997880 37 24 192 42523
-21.986855 36.158596 2.2395761 61 16097520 29 24 199 42374
-21.809776 36.368195 2.2440743 77 16191590 37 24 211 42462
-21.59079 36.509068 2.2445343 74 16289250 35 24 140 42471
-20.958372 35.941189 2.2030792 64 16387980 29 24 227 41660
-20.680202 35.969543 2.197201 67 16485950 31 24 218 41545
-20.457138 36.092281 2.1969965 67 16580540 31 24 187 41541
-20.264521 36.269436 2.2000635 65 16680160 30 24 162 41601
-19.924047 36.179638 2.1875913 95 16778040 44 24 277 41357
-19.812197 36.504848 2.19945 53 16873490 24 24 230 41589
-19.603376 36.654789 2.2011368 59 16970200 27 24 241 41622
-19.378099 36.774384 2.2011368 66 17069140 30 24 204 41622
-19.083069 36.759636 2.1934695 70 17167280 32 24 244 41472
-18.868979 36.899155 2.1947985 51 17261740 23 24 224 41498
-18.619753 36.969639 2.1922429 66 17360300 30 24 240 41448
-18.360168 37.017879 2.1885114 58 17461100 26 24 235 41375
-17.592764 36.024242 2.1255367 43 17556710 19 24 314 40143
-17.804991 37.033382 2.1767547 44 17654470 20 24 265 41145
-17.502663 36.983959 2.1678095 65 17752780 29 24 253 40970
-17.082285 36.676025 2.1443982 97 17851580 43 24 279 40512
-16.803247 36.663033 2.1378043 69 17945320 30 24 289 40383
-16.516394 36.628883 2.130137 62 18045660 27 24 302 40233
-16.438318 37.060925 2.1486921 81 18143890 36 24 222 40596
-16.187847 37.108913 2.1457784 62 18240780 27 24 251 40539
-15.894888 37.056103 2.1373444 63 18336220 27 24 207 40374
-15.741334 37.328697 2.1471074 56 18435780 25 24 221 40565
-15.24317 36.776005 2.1111729 63 18534730 26 24 240 39862
-14.894794 36.568245 2.0945604 63 18628640 26 24 264 39537
-14.74657 36.849953 2.1050901 54 18726950 23 24 297 39743
-14.419349 36.683212 2.0909822 49 18826670 21 24 296 39467
-14.158749 36.679691 2.0859728 51 18921610 21 24 308 39369
-13.987569 36.90876 2.0937936 49 19018700 20 24 256 39522
-13.767453 37.011677 2.0947647 38 19118080 16 24 228 39541
-13.468869 36.900318 2.0841327 84 19216200 34 24 254 39333
-13.222673 36.927734 2.0811679 53 19310770 22 24 163 39275
-12.969369 36.932789 2.0770788 63 19408750 26 24 215 39195
-12.706748 36.907799 2.071456 64 19507870 26 24 301 39085
-12.382979 36.697403 2.0559168 61 19604500 24 24 282 38781
-12.162591 36.787865 2.0567346 68 19699520 28 24 270 38797
-11.922483 36.818096 2.0543833 44 19797380 17 24 243 38751
-11.6719 36.813446 2.0502429 42 19897150 17 24 252 38670
-11.447573 36.890095 2.0505495 40 19990770 16 24 261 38676
-11.160078 36.758961 2.0398152 38 20089780 15 24 242 38466
-10.919538 36.776958 2.0371573 55 20188520 22 24 281 38414
-10.685322 36.814495 2.0356238 41 20284680 16 24 283 38384
-10.466315 36.904346 2.0369527 39 20379420 15 24 259 38410
-9.7374325 35.154606 1.9406505 56 20478130 20 24 267 36526
-9.537446 35.272503 1.9437686 44 20578100 16 24 302 36587
-9.367713 35.508038 1.9531739 36 20673010 13 24 289 36771
-9.327323 36.255428 1.9896706 64 20770670 24 24 295 37485
-9.1345634 36.431129 1.9959579 45 20870040 17 24 287 37608
-8.9129868 36.495224 1.9964179 49 20968850 18 24 211 37617
-8.7166061 36.665821 2.0025518 47 21063290 18 24 182 37737
-8.4880896 36.704018 2.001785 53 21161840 20 24 209 37722
-8.2235098 36.580997 1.9926354 65 21260270 24 24 236 37543
-8.0031595 36.65028 1.9936576 64 21355510 24 24 219 37563
-7.7961416 36.783695 1.9981047 68 21453030 26 24 170 37650
-7.4914765 36.447369 1.9780673 40 21552660 15 24 215 37258
-7.2879848 36.594513 1.9833833 44 21650780 16 24 213 37362
-7.133822 37.004318 2.0024495 48 21745350 18 24 141 37735
-6.8707604 36.854965 1.9924308 49 21843690 18 24 142 37539
-6.6443167 36.895447 1.9923798 41 21939490 15 24 161 37538
-6.4148989 36.918793 1.9915107 43 22038040 16 24 208 37521
-6.161531 36.797894 1.98323 53 22136080 20 24 242 37359
-5.9538984 36.948395 1.9891083 34 22233170 13 24 164 37474
-5.6141386 36.25489 1.9513338 33 22328460 12 24 279 36735
-5.3791018 36.204689 1.9469888 43 22427790 16 24 279 36650
-5.1776767 36.383343 1.954554 28 22528060 10 24 301 36798
-4.9345446 36.268959 1.94704 39 22621540 14 24 288 36651
-4.7203941 36.363922 1.9504136 43 22720930 16 24 304 36717
-4.4883618 36.320839 1.9467332 50 22819300 18 24 326 36645
-4.25983 36.300083 1.9442797 38 22917020 13 24 267 36597
-4.0317221 36.277893 1.9418261 43 23012600 16 24 318 36549
-3.7186966 35.440811 1.8975087 32 23109820 11 24 339 35682
-3.5188267 35.641853 1.9067096 37 23209330 13 24 289 35862
-3.2992382 35.653824 1.9062495 40 23304640 13 24 236 35853
-3.0640848 35.484348 1.8965375 37 23401960 12 24 287 35663
-2.8419898 35.448727 1.8937773 35 23501520 12 24 269 35609
-2.6149201 35.337017 1.8871833 62 23599560 20 24 258 35480
-2.3997366 35.377304 1.8884612 53 23693400 17 24 266 35505
-2.1710641 35.203964 1.8788514 67 23792940 22 24 297 35317
-1.9614919 35.33329 1.884832 56 23890180 18 24 303 35434
-1.7398785 35.247906 1.8798738 51 23985570 16 24 253 35337
-1.5242153 35.272884 1.8806405 49 24083610 16 24 270 35352
-1.3098646 35.338459 1.8835541 51 24181980 16 24 236 35409
-1.071588 34.653072 1.8480797 49 24280710 15 24 267 34715
-0.85592264 34.537189 1.8418435 64 24376220 20 24 236 34593
-0.64851284 34.784431 1.8542647 32 24473910 10 24 260 34836
-0.43248314 34.581043 1.8436837 70 24573550 21 24 251 34629
-0.22095716 34.687908 1.8490509 48 24669120 15 24 226 34734
-0.0081325928 34.778492 1.8536513 45 24765260 14 24 246 34824
0.20453878 34.655048 1.8473641 69 24865000 21 24 214 34701
0.41760728 34.689095 1.8492042 70 24964180 21 24 210 34737
0.63006645 34.664909 1.8481308 57 25057670 17 24 225 34716
0.82983726 34.129242 1.8209372 72 25157290 22 24 287 34184
1.0421537 34.219337 1.8258443 52 25256560 16 24 256 34280
1.2487757 34.121479 1.8211927 69 25353340 21 24 316 34189
1.4670323 34.321712 1.8318759 40 25448730 12 24 266 34398
1.6912069 34.590366 1.8461373 54 25547790 17 24 300 34677
1.9184039 34.85157 1.8600919 53 25646490 17 24 288 34950
2.1642444 35.362476 1.8869277 44 25739350 14 24 278 35475
2.3803782 35.336575 1.8863144 37 25838440 12 24 290 35463
2.5928333 35.262539 1.8832985 29 25937900 10 24 303 35404
2.7393231 34.369892 1.8383166 38 26033590 12 24 337 34524
3.0434806 35.439011 1.8941351 20 26130060 6 24 247 35616
3.2927363 35.765751 1.9119234 38 26229920 13 24 283 35964
3.5405483 36.0341 1.9267981 34 26328780 12 24 275 36255
3.6250372 34.704529 1.8595296 42 26421750 13 24 323 34939
3.8470294 34.764023 1.8637723 36 26520140 11 24 322 35022
4.1023512 35.099838 1.8823273 37 26619250 12 24 301 35385
4.3282585 35.16024 1.8867744 49 26717200 16 24 329 35472
4.5480156 35.164715 1.8884101 35 26811230 12 24 280 35504
4.7866411 35.305374 1.8971509 28 26910350 9 24 319 35675
5.0257607 35.434536 1.9053806 42 27009910 14 24 248 35836
5.2501111 35.450451 1.9078341 33 27104320 11 24 294 35884
5.6223416 36.420364 1.9597678 23 27202410 8 24 261 36900
5.8921251 36.674091 1.9747448 35 27301210 13 24 236 37193
6.1172066 36.638233 1.9747959 47 27398770 17 24 195 37194
6.3260417 36.508495 1.9700421 42 27494350 15 24 245 37101
6.2490973 34.794022 1.8829406 35 27592190 12 24 289 35397
6.305274 33.909637 1.8389299 41 27690810 13 24 298 34536
6.4920983 33.760471 1.833205 60 27785730 19 24 320 34424
6.6214767 33.329159 1.8128097 49 27882990 15 24 308 34025
6.9085102 33.690979 1.8338695 36 27981620 11 24 319 34437
7.234529 34.212711 1.8634144 42 28079640 13 24 280 35015
7.4560113 34.221344 1.8662258 51 28174350 16 24 290 35070
8.2451172 36.757317 2.0016828 20 28273850 7 24 258 37720
8.551569 37.057327 2.0201356 42 28372230 16 24 184 38081
8.8456421 37.285957 2.0349593 46 28466870 18 24 152 38371
8.1105547 33.277054 1.8266622 49 28564340 15 24 309 34296
8.311677 33.215038 1.8260487 46 28663380 14 24 289 34284
9.3923569 36.578995 2.0065389 31 28762260 12 24 217 37815
9.5947533 36.437618 2.0021429 42 28855710 16 24 214 37729
9.8145065 36.364563 2.0014272 43 28953440 16 24 163 37715
