# .PCD v0.7 - Point Cloud Data file format
VERSION 0.7
FIELDS x y z intensity t reflectivity ring ambient range
SIZE 4 4 4 4 4 2 1 2 4
TYPE F F F F U U U U U
COUNT 1 1 1 1 1 1 1 1 1
WIDTH 862
HEIGHT 1
VIEWPOINT 0 0 0 1 0 0 0
POINTS 862
DATA ascii
-12.156425 -12.932368 0.12072669 56 86741200 14 32 185 17749
-12.314825 -12.940841 0.12102776 46 86838600 11 32 151 17864
-12.409954 -12.881598 0.12108798 69 86938290 17 32 229 17887
-12.501328 -12.818095 0.1211351 61 87036330 15 32 199 17905
-12.598011 -12.759649 0.12120317 57 87131390 14 32 212 17931
-12.912185 -12.918336 0.12207758 36 87231060 8 32 148 18265
-13.048108 -12.895098 0.12228701 47 87330440 11 32 139 18345
-13.15704 -12.844132 0.12239697 27 87426180 6 32 162 18387
-13.142742 -12.673617 0.12205925 43 87522950 10 32 196 18258
-13.377385 -12.742402 0.12262736 13 87621310 3 32 163 18475
-13.300191 -12.514122 0.12206972 27 87718900 6 32 217 18262
-14.769933 -13.727096 0.12704913 29 87812520 6 32 192 20164
-15.504353 -14.233348 0.12936082 17 87912500 3 32 189 21047
-15.75437 -14.285727 0.12993678 19 88011540 4 32 191 21267
-15.873014 -14.216812 0.13004674 17 88107300 3 32 226 21309
-16.344925 -14.459718 0.13139239 30 88204350 6 32 175 21823
-16.486807 -14.405871 0.13157827 37 88303340 8 32 228 21894
-16.310675 -14.076423 0.13066459 25 88402480 5 32 263 21545
-16.456863 -14.027323 0.1308714 32 88495520 6 32 261 21624
-16.508198 -13.897101 0.13075359 36 88594800 8 32 301 21579
-16.589314 -13.792351 0.13074051 31 88694370 6 32 304 21574
-16.680584 -13.696012 0.13076407 34 88790930 7 32 262 21583
-16.849749 -13.662683 0.13105205 13 88887420 2 32 253 21693
-16.976978 -13.594041 0.13119866 38 88986830 8 32 258 21749
-16.857691 -13.329596 0.13052322 29 89085570 6 32 334 21491
-17.114933 -13.363144 0.13110703 24 89180540 5 32 241 21714
-17.229868 -13.283521 0.13121699 21 89279960 4 32 289 21756
-18.243605 -13.887421 0.13428527 30 89379360 6 32 301 22928
-18.717779 -14.067807 0.13556023 17 89477530 3 32 302 23415
-18.890476 -14.017047 0.13584296 43 89573790 8 32 320 23523
-18.988228 -13.909738 0.13588224 23 89672110 4 32 306 23538
-20.018864 -14.476807 0.13893744 38 89772080 7 32 244 24705
-20.21719 -14.432136 0.13929087 24 89866840 4 32 247 24840
-20.425529 -14.392485 0.13967571 30 89965200 6 32 216 24987
-20.605404 -14.330832 0.13996893 31 90064740 6 32 255 25099
-20.678108 -14.193944 0.1399218 19 90161500 3 32 241 25081
-20.726727 -14.040999 0.13980137 33 90257290 6 32 236 25035
-20.722706 -13.853537 0.13951863 25 90357510 5 32 295 24927
-20.993465 -13.848918 0.14010245 40 90456570 7 32 197 25150
-20.888636 -13.596558 0.13951078 27 90553440 5 32 250 24924
-21.126492 -13.567557 0.13999249 21 90649810 4 32 184 25108
-21.232151 -13.452123 0.14006317 29 90749470 5 32 243 25135
-20.990358 -13.119133 0.1390631 23 90848060 4 32 277 24753
-21.158136 -13.044145 0.13933276 23 90942750 4 32 251 24856
-21.498379 -13.072537 0.14013124 18 91041080 3 32 303 25161
-21.696535 -13.011353 0.14049253 32 91140900 6 32 283 25299
-21.735508 -12.854056 0.14036947 44 91236360 8 32 282 25252
-21.961689 -12.806586 0.14081715 54 91333510 10 32 305 25423
-21.737297 -12.497641 0.13990347 34 91431600 6 32 372 25074
-21.739624 -12.322115 0.13968095 32 91531000 6 32 385 24989
-21.811331 -12.18654 0.13967048 28 91626350 5 32 317 24985
-0 -0 0 4 91725530 0 32 47 0
-22.253668 -12.077759 0.1405475 15 91820770 3 32 310 25320
-8.7333698 -4.6708436 0.10018855 57 91920520 18 32 308 9904
-8.8069839 -4.640944 0.10032207 35 92020300 11 32 85 9955
-0 -0 0 3 92117340 0 32 60 0
-0 -0 0 4 92212610 0 32 43 0
-0 -0 0 1 92312420 0 32 55 0
-0 -0 0 1 92411760 0 32 34 0
-0 -0 0 1 92506780 0 32 48 0
-0 -0 0 3 92604870 0 32 42 0
-0 -0 0 5 92704650 0 32 46 0
-0 -0 0 5 92802420 0 32 34 0
-0 -0 0 4 92897530 0 32 37 0
-0 -0 0 6 92996270 0 32 42 0
-0 -0 0 5 93096030 0 32 50 0
-0 -0 0 3 93191150 0 32 39 0
-0 -0 0 2 93287640 0 32 51 0
-0 -0 0 3 93387460 0 32 55 0
-0 -0 0 2 93486270 0 32 52 0
-0 -0 0 2 93581130 0 32 36 0
-0 -0 0 2 93680050 0 32 58 0
-8.6822519 -3.4129348 0.098683208 8 93779580 2 32 45 9329
-0 -0 0 2 93873580 0 32 34 0
-8.7290907 -3.3082595 0.098698914 6 93971610 2 32 42 9335
-8.7314177 -3.2480125 0.098649174 9 94070600 3 32 44 9316
-8.719244 -3.1827188 0.098560162 3 94167360 1 32 41 9282
-0 -0 0 1 94261730 0 32 37 0
-8.6812201 -3.0486436 0.098348103 5 94360600 1 32 39 9201
-0 -0 0 2 94458910 0 32 51 0
-8.629859 -2.9121482 0.098104633 7 94555050 2 32 40 9108
-8.6314249 -2.8538053 0.098060124 3 94652540 1 32 65 9091
-8.6192808 -2.7912402 0.097978972 3 94751420 1 32 84 9060
-0 -0 0 3 94850220 0 32 63 0
-8.671031 -2.6908891 0.098028712 8 94944160 2 32 79 9079
-0 -0 0 4 95042590 0 32 56 0
-0 -0 0 3 95142380 0 32 92 0
-8.696043 -2.5241382 0.097965881 11 95239330 3 32 71 9055
-8.75947 -2.4843748 0.09809678 144 95335710 45 32 305 9105
-8.7504568 -2.4239075 0.098031327 157 95434550 49 32 334 9080
-8.9147911 -2.4106274 0.098437116 68 95532870 21 32 192 9235
-0 -0 0 8 95627180 0 32 55 0
-9.1199617 -2.3463926 0.098913595 7 95726870 2 32 83 9417
-9.3039322 -2.3329499 0.099371739 33 95824990 10 32 155 9592
-9.0917253 -2.2205398 0.098761745 14 95922080 4 32 62 9359
-9.093504 -2.161937 0.098730333 4 96018330 1 32 39 9347
-10.311789 -2.3848035 0.10196879 25 96116820 8 32 226 10584
-10.604287 -2.3839939 0.10271491 45 96216440 14 32 285 10869
-10.908877 -2.3822424 0.10349246 31 96310380 10 32 159 11166
-11.042638 -2.3405569 0.10381185 73 96409790 23 32 280 11288
-11.442722 -2.3520796 0.10484334 41 96509360 13 32 99 11682
-11.545205 -2.2994025 0.10507896 62 96605670 19 32 109 11772
-11.865455 -2.2875786 0.10589577 8 96701060 2 32 139 12084
-12.28134 -2.2896857 0.10696653 14 96799630 4 32 162 12493
-12.827591 -2.3101666 0.10838287 7 96899560 2 32 131 13034
-12.964679 -2.2528129 0.10871011 13 96994180 4 32 131 13159
-13.604538 -2.2780836 0.11037254 15 97091690 5 32 121 13794
-14.231349 -2.2933559 0.11199831 7 97191260 2 32 160 14415
-14.814367 -2.294132 0.11350627 9 97288590 3 32 193 14991
-0 -0 0 9 97384140 0 32 165 0
-0 -0 0 7 97483970 0 32 148 0
-0 -0 0 4 97582260 0 32 198 0
-18.06139 -2.3446298 0.12194144 4 97678950 1 32 137 18213
-0 -0 0 3 97775840 0 32 176 0
-0 -0 0 5 97874980 0 32 171 0
-0 -0 0 5 97972250 0 32 213 0
-0 -0 0 5 98066960 0 32 231 0
-23.546436 -2.3247344 0.13620426 7 98166700 1 32 252 23661
-35.12183 -3.2500122 0.16660175 6 98265410 2 32 91 35272
-35.101257 -3.0310066 0.16649702 6 98360430 2 32 63 35232
-34.867004 -2.7953548 0.16583468 3 98457100 1 32 54 34979
-34.145519 -2.5267556 0.16389737 14 98556230 4 32 79 34239
-33.55677 -2.2762535 0.16231348 2 98653120 0 32 45 33634
-0 -0 0 6 98748030 0 32 79 0
-33.614128 -1.8660623 0.16239725 23 98846780 7 32 111 33666
-0 -0 0 5 98942320 0 32 284 0
-0 -0 0 4 99042580 0 32 381 0
-17.946609 -0.66529536 0.12127647 127 99139990 31 32 232 17959
-0 -0 0 4 99237910 0 32 174 0
-16.374912 -0.40590069 0.11714266 9 99333270 2 32 141 16380
-0 -0 0 3 99431110 0 32 93 0
-0 -0 0 3 99529720 0 32 90 0
-0 -0 0 3 99624860 0 32 93 0
-0 -0 0 3 99723030 0 32 85 0
-0 0 0 2 99824160 0 32 58 0
-18.070356 -0.64632726 0.020686537 34 0 8 33 120 18082
-0 -0 -0 2 98210 0 33 63 0
-0 -0 -0 3 196250 0 33 60 0
-16.251476 -0.28184822 0.026110314 3 292840 1 33 105 16254
-16.294897 -0.18259762 0.025985699 11 392660 3 33 98 16296
-16.285709 -0.082559586 0.026015369 10 491270 3 33 113 16286
-16.219912 0.017300814 0.026211195 9 586310 2 33 114 16220
-16.285498 0.11729735 0.026015369 7 684650 2 33 109 16286
-0 0 -0 2 783540 0 33 77 0
-0 0 -0 2 880050 0 33 59 0
-0 0 -0 2 976350 0 33 73 0
-0 0 -0 3 1075230 0 33 102 0
-0 0 -0 3 1174590 0 33 72 0
-0 0 -0 3 1269130 0 33 77 0
-0 0 -0 2 1366880 0 33 92 0
-0 0 -0 2 1465460 0 33 114 0
-0 0 -0 3 1564000 0 33 91 0
-0 0 -0 2 1657920 0 33 102 0
-18.001577 1.3471276 0.020775549 12 1758540 3 33 293 18052
-0 0 -0 6 1857090 0 33 541 0
-0 0 -0 6 1952380 0 33 371 0
-0 0 -0 4 2049000 0 33 157 0
-0 0 -0 5 2148090 0 33 222 0
-0 0 -0 4 2246500 0 33 142 0
-0 0 -0 5 2341350 0 33 199 0
-0 0 -0 3 2439940 0 33 196 0
-79.992096 9.9507465 -0.16483453 7 2539780 13 33 129 80609
-80.040588 10.455888 -0.16516684 25 2634880 43 33 133 80721
-0 0 -0 4 2732280 0 33 285 0
-0 0 -0 3 2831670 0 33 272 0
-0 0 -0 5 2929950 0 33 310 0
-0 0 -0 3 3024200 0 33 274 0
-0 0 -0 3 3124090 0 33 241 0
-0 0 -0 3 3224130 0 33 285 0
-0 0 -0 4 3320760 0 33 238 0
-0 0 -0 5 3417020 0 33 198 0
-0 0 -0 4 3515870 0 33 269 0
-0 0 -0 5 3615900 0 33 212 0
-0 0 -0 4 3708820 0 33 233 0
-0 0 -0 4 3808580 0 33 200 0
-0 0 -0 4 3907580 0 33 277 0
-0 0 -0 4 4005410 0 33 286 0
-0 0 -0 4 4100330 0 33 287 0
-0 0 -0 4 4200020 0 33 266 0
-107.93992 25.752752 -0.25491729 629 4298130 182 33 251 110970
-108.10039 26.493124 -0.25589642 650 4393090 183 33 264 111300
-108.09775 27.196663 -0.25639194 510 4491640 174 33 278 111467
-108.1709 27.921909 -0.25713369 32 4589870 101 33 221 111717
-107.9782 28.57999 -0.25707436 573 4688420 179 33 199 111697
-118.39106 32.114651 -0.28963184 20 4782180 81 33 197 122670
-0 0 -0 9 4882520 0 33 219 0
-117.53503 33.436199 -0.28823435 11 4981080 46 33 218 122199
-117.22396 34.126564 -0.28791392 17 5076500 69 33 177 122091
-105.45592 31.403847 -0.25213718 5 5173840 19 33 107 110033
-0 0 -0 5 5273730 0 33 160 0
-114.08097 35.502068 -0.28016102 7 5371120 29 33 132 119478
-96.129684 30.563911 -0.22495598 1533 5465700 218 33 249 100872
-96.520515 31.341566 -0.22676589 2894 5565270 255 33 410 101482
-96.444092 31.972233 -0.2271338 2931 5663430 255 33 365 101606
-96.411865 32.619484 -0.22765303 2941 5759550 255 33 361 101781
-96.466072 33.298866 -0.22845711 2934 5855810 255 33 291 102052
-95.916595 33.769268 -0.2273771 532 5955500 170 33 222 101688
-103.92418 37.306717 -0.25327948 13 6053420 45 33 161 110418
-103.48295 37.866707 -0.25261486 26 6147950 86 33 194 110194
-103.13622 38.459026 -0.25225881 24 6246810 80 33 125 110074
-93.843712 35.651337 -0.22351992 8 6341650 23 33 257 100388
-93.625992 36.227562 -0.22352882 23 6440050 62 33 259 100391
-84.797752 33.411266 -0.19608949 20 6539310 46 33 214 91143
-84.089966 33.729916 -0.19448729 25 6636800 56 33 264 90603
-83.841614 34.228996 -0.1943597 33 6732090 74 33 134 90560
-82.769325 34.385242 -0.19159441 28 6832350 61 33 181 89628
-81.726868 34.541702 -0.18892109 29 6931400 62 33 231 88727
-81.260742 34.933907 -0.18810515 43 7026000 90 33 254 88452
-80.204651 35.064533 -0.18538436 20 7124350 41 33 257 87535
-80.002609 35.562496 -0.18543184 27 7222790 55 33 243 87551
-72.391541 32.712719 -0.16136605 15 7320730 26 33 256 79440
-72.680168 33.381668 -0.16296826 20 7415860 34 33 206 79980
-71.752678 33.490341 -0.16060647 31 7515310 52 33 196 79184
-69.509247 32.964161 -0.15391874 16 7614290 26 33 234 76930
-69.342613 33.407833 -0.15404038 26 7709580 41 33 209 76971
-69.333031 33.928944 -0.15469018 18 7807040 29 33 233 77190
-65.334671 32.470726 -0.14213656 15 7905990 22 33 231 72959
-49.891327 25.17857 -0.091477059 20 8004150 17 33 143 55885
-49.092442 25.154531 -0.089331873 13 8098960 10 33 64 55162
-48.273579 25.110115 -0.087112516 9 8199430 7 33 76 54414
-48.056698 25.373161 -0.086904824 15 8298070 12 33 75 54344
-46.644951 24.994987 -0.082679741 19 8394560 14 33 107 52920
-46.16917 25.105883 -0.081593797 27 8490350 20 33 98 52554
-45.410114 25.055368 -0.079546526 126 8587810 89 33 95 51864
-44.7215 25.034594 -0.077730693 428 8686820 132 33 136 51252
-44.180958 25.089283 -0.076413319 1205 8780690 174 33 218 50808
-43.579056 25.102352 -0.074882314 1442 8880330 183 33 272 50292
-42.978672 25.10899 -0.073351316 1562 8979590 187 33 284 49776
-42.431484 25.139797 -0.071998335 1936 9075580 201 33 277 49320
-41.864979 25.152483 -0.070574149 2121 9172470 210 33 298 48840
-41.310177 25.165417 -0.06918557 2174 9272060 213 33 305 48372
-40.746601 25.166191 -0.067761384 2227 9369400 215 33 315 47892
-40.225266 25.186481 -0.066479616 2165 9462340 212 33 334 47460
-39.634312 25.156315 -0.064948618 2071 9561380 204 33 321 46944
-39.095718 25.152319 -0.063595638 2006 9660350 201 33 304 46488
-38.528522 25.123005 -0.062135845 1484 9757440 181 33 228 45996
-37.943153 25.074459 -0.060604844 832 9854020 152 33 166 45480
-37.429642 25.066423 -0.059323076 384 9954230 121 33 125 45048
-36.897812 25.039564 -0.057970099 245 10052270 104 33 103 44592
-36.486389 25.088718 -0.057044379 160 10144670 82 33 107 44280
-36.036377 25.106337 -0.055976238 123 10244430 62 33 93 43920
-35.521358 25.072676 -0.054667767 63 10342650 31 33 88 43479
-35.053677 25.066221 -0.053525452 56 10439740 27 33 85 43094
-34.39954 24.91888 -0.051694777 56 10535470 27 33 72 42477
-34.201649 25.096947 -0.051531591 38 10634840 18 33 91 42422
-34.146534 25.380301 -0.051899504 2889 10733170 255 33 358 42546
-34.075645 25.653696 -0.052216981 2833 10827910 255 33 395 42653
-34.073456 25.981138 -0.052798524 35 10927030 17 33 154 42849
-34.032909 26.282011 -0.05324655 24 11025340 12 33 179 43000
-33.928505 26.535311 -0.053463142 30 11123210 15 33 151 43073
-33.742317 26.724987 -0.053377099 1452 11218050 176 33 238 43044
-34.112839 27.360729 -0.055412497 2910 11318080 255 33 298 43730
-33.780529 27.436504 -0.054786451 1108 11415450 164 33 244 43519
-42.444134 34.907307 -0.088717699 51 11509010 40 33 193 54955
-42.083141 35.045498 -0.088153958 30 11607810 24 33 228 54765
-41.31535 34.837639 -0.086011738 35 11705970 27 33 217 54043
-41.090164 35.081398 -0.085970201 24 11804140 18 33 224 54029
-39.227928 33.909859 -0.079513893 57 11899000 40 33 239 51853
-38.676735 33.850262 -0.078163877 31 11999140 22 33 201 51398
-38.08136 33.744072 -0.076629914 50 12098130 34 33 242 50881
-37.672615 33.796803 -0.075828806 43 12193440 29 33 242 50611
-37.619247 34.167839 -0.076448925 46 12290160 31 33 206 50820
-35.896175 33.007088 -0.070351623 40 12389320 25 33 250 48765
-35.619045 33.157906 -0.070051953 58 12487540 37 33 283 48664
-35.13401 33.111103 -0.068906665 31 12582150 19 33 256 48278
-34.613277 33.023712 -0.067607097 61 12681890 37 33 268 47840
-34.401367 33.227139 -0.067571491 59 12780050 36 33 250 47828
-34.21114 33.451576 -0.067630835 36 12876220 22 33 253 47848
-34.32719 33.979542 -0.068974912 31 12972550 19 33 218 48301
-33.896954 33.967979 -0.06804622 45 13072190 27 33 217 47988
-33.559425 34.045002 -0.067503251 33 13171490 20 33 189 47805
-33.134327 34.028893 -0.066586427 64 13264870 38 33 189 47496
-32.98175 34.290661 -0.066829726 43 13364270 26 33 201 47578
-32.765903 34.487312 -0.066808961 45 13460320 27 33 170 47571
-32.141029 34.24802 -0.065019824 38 13559370 22 33 208 46968
-31.871138 34.380787 -0.064761691 32 13658160 19 33 162 46881
-32.017502 34.966579 -0.066334233 63 13755700 37 33 133 47411
-30.018724 33.19035 -0.058444828 35 13852330 18 33 208 44752
-29.877132 33.444016 -0.058723733 54 13952300 28 33 183 44846
-29.341206 33.252548 -0.057243172 54 14050710 28 33 198 44347
-28.747662 32.985668 -0.055486675 55 14144100 28 33 283 43755
-28.920498 33.59798 -0.057195701 33 14243340 17 33 214 44331
-28.331644 33.325298 -0.055445138 25 14341750 13 33 291 43741
-27.663645 32.947113 -0.053308856 28 14439170 14 33 280 43021
-26.47603 31.92849 -0.04873069 23 14534660 11 33 268 41478
-26.260614 32.067131 -0.048641678 24 14634550 11 33 286 41448
-25.833838 31.943859 -0.047558703 40 14733090 18 33 265 41083
-25.638596 32.103336 -0.047564637 41 14828360 19 33 271 41085
-25.286938 32.064533 -0.046825841 46 14926540 20 33 248 40836
-24.875902 31.944521 -0.045793306 20 15026930 9 33 172 40488
-0 0 -0 2 15123640 0 33 48 0
-0 0 -0 2 15219130 0 33 64 0
-0 0 -0 2 15317730 0 33 43 0
-0 0 -0 1 15415390 0 33 43 0
-0 0 -0 2 15510710 0 33 42 0
-0 0 -0 1 15608510 0 33 43 0
-0 0 -0 2 15707700 0 33 48 0
-0 0 -0 3 15804350 0 33 61 0
-0 0 -0 2 15899690 0 33 39 0
-15.867478 23.180162 -0.0090107201 9 15998000 2 33 90 28091
-15.699759 23.239799 -0.0088772029 31 16097540 6 33 76 28046
-0 0 -0 3 16192600 0 33 48 0
-0 0 -0 2 16289210 0 33 37 0
-0 0 -0 2 16387980 0 33 58 0
-0 0 -0 5 16487000 0 33 140 0
-20.02532 31.69698 -0.036906976 67 16580510 25 33 245 37493
-19.807711 31.782764 -0.036779393 71 16680100 26 33 239 37450
-19.613894 31.90626 -0.036788292 46 16777860 17 33 223 37453
-19.304207 31.838741 -0.036138508 39 16874360 15 33 299 37234
-19.078718 31.906813 -0.035966419 54 16970190 20 33 278 37176
-18.83433 31.941444 -0.035684548 53 17069130 20 33 273 37081
-18.515341 31.845472 -0.034960587 60 17168100 21 33 259 36837
-18.284283 31.896885 -0.034749925 76 17261590 28 33 290 36766
-18.086746 32.005863 -0.034741025 68 17360130 25 33 279 36763
-17.946472 32.217575 -0.035085201 67 17461020 25 33 274 36879
-17.688292 32.217514 -0.034714319 55 17557530 20 33 270 36754
-17.367022 32.097652 -0.033945855 57 17654190 20 33 264 36495
-17.004137 31.893003 -0.032901451 60 17752500 21 33 243 36143
-16.730461 31.848896 -0.03240595 45 17851890 15 33 229 35976
-16.534266 31.950066 -0.032402985 63 17945630 22 33 273 35975
-16.195307 31.771168 -0.031471331 53 18045520 18 33 287 35661
-15.89327 31.657246 -0.03076517 58 18143640 19 33 256 35423
-15.644214 31.643909 -0.030400222 63 18241660 20 33 267 35300
-15.413866 31.665577 -0.030156923 57 18335990 18 33 287 35218
-15.255581 31.835308 -0.030406157 46 18435630 15 33 257 35302
-15.021561 31.846918 -0.030139122 56 18534500 18 33 222 35212
-14.803973 31.891323 -0.029984834 60 18629290 19 33 220 35160
-14.581007 31.922434 -0.029791975 49 18726680 15 33 255 35095
-14.296323 31.814281 -0.029151091 57 18826320 18 33 250 34879
-14.07214 31.836464 -0.028940432 55 18922430 17 33 240 34808
-13.809155 31.767221 -0.028438998 54 19018400 16 33 189 34639
-13.514536 31.618717 -0.027688334 68 19117740 21 33 209 34386
-13.304003 31.662325 -0.027563717 46 19215920 14 33 224 34344
-13.056798 31.615812 -0.027154263 49 19311510 15 33 252 34206
-12.853536 31.673094 -0.027083054 61 19408580 18 33 237 34182
-12.650063 31.729073 -0.027011845 56 19507590 17 33 246 34158
-12.428155 31.73719 -0.026792282 56 19605250 17 33 157 34084
-12.186884 31.692446 -0.026409533 61 19699270 18 33 164 33955
-11.960405 31.682428 -0.026142498 60 19797180 18 33 193 33865
-11.719918 31.631443 -0.025750846 61 19896940 18 33 205 33733
-11.491442 31.608778 -0.025454141 64 19991430 19 33 218 33633
-11.29627 31.675869 -0.02544524 35 20089420 10 33 198 33630
-11.070005 31.653967 -0.025160402 56 20188220 16 33 212 33534
-10.836653 31.607782 -0.024804356 60 20285410 18 33 241 33414
-10.628174 31.631023 -0.024670837 49 20379140 14 33 240 33369
-10.430449 31.685194 -0.0246382 46 20477880 13 33 236 33358
-10.227551 31.7229 -0.02455809 34 20574570 10 33 190 33331
-10.015252 31.729748 -0.024386002 39 20673360 11 33 197 33273
-9.8233252 31.800158 -0.024415672 49 20772750 14 33 151 33283
-9.6132641 31.811014 -0.024264352 49 20869520 14 33 165 33232
-9.4000397 31.808985 -0.024077427 40 20966310 11 33 217 33169
-9.1894226 31.813225 -0.023914238 47 21065270 13 33 206 33114
-8.988615 31.849764 -0.023854898 51 21163810 14 33 172 33094
-8.789299 31.89082 -0.023813359 57 21257350 16 33 212 33080
-8.5802059 31.894901 -0.02366204 50 21355590 14 33 183 33029
-8.3561621 31.839584 -0.023332696 45 21455000 13 33 224 32918
-8.1370878 31.798223 -0.023050826 47 21552560 13 33 156 32823
-7.9381952 31.833 -0.02300632 46 21647680 13 33 180 32808
-7.7311573 31.833492 -0.022860935 49 21747440 14 33 160 32759
-7.5234923 31.828753 -0.022703681 45 21845680 12 33 180 32706
-7.312592 31.807072 -0.022498954 38 21940340 10 33 173 32637
-7.1035504 31.78986 -0.022312028 50 22037780 14 33 143 32574
-6.8657265 31.636421 -0.02171565 46 22135800 12 33 220 32373
-6.6922956 31.776785 -0.022015324 45 22233920 12 33 191 32474
-6.4997921 31.829987 -0.022053896 41 22328300 11 33 173 32487
-0 0 -0 12 22427620 0 33 267 0
-0 0 -0 9 22527910 0 33 171 0
-4.680346 25.286375 -0.0019639635 62 22622350 12 33 153 25716
-0 0 -0 4 22720580 0 33 92 0
-4.3537164 25.249273 -0.0016850602 14 22819070 2 33 76 25622
-0 0 -0 2 22917760 0 33 77 0
-0 0 -0 3 23012460 0 33 112 0
-0 0 -0 3 23109590 0 33 109 0
-0 0 -0 4 23209060 0 33 150 0
-3.576453 25.36599 -0.0016702249 15 23305370 3 33 169 25617
-3.4063191 25.280426 -0.0013497829 38 23401790 7 33 226 25509
-3.2433617 25.240349 -0.0011687926 59 23501300 11 33 213 25448
-3.0855155 25.23595 -0.0010975832 80 23600190 15 33 246 25424
-2.929575 25.245468 -0.0010708797 64 23693100 12 33 228 25415
-2.7735248 25.253029 -0.0010412092 64 23792620 12 33 199 25405
-2.6181104 25.265593 -0.001029341 69 23889880 13 33 246 25401
-2.4618704 25.269238 -0.00099373632 75 23986330 14 33 195 25389
-2.3059571 25.274906 -0.0009670328 75 24083280 14 33 177 25380
-2.1519318 25.301533 -0.0010056045 66 24181770 13 33 215 25393
-1.9974304 25.324228 -0.0010352751 62 24281390 12 33 201 25403
-1.8433844 25.354958 -0.0010916492 68 24375760 13 33 232 25422
-1.690099 25.400713 -0.0011954961 51 24473450 10 33 180 25457
-1.5384313 25.480478 -0.00140319 30 24573210 6 33 244 25527
-1.3886105 25.61026 -0.0017622036 27 24669750 5 33 245 25648
-1.5188686 31.595366 -0.019517062 25 24764940 6 33 161 31632
-1.322167 31.537149 -0.01931827 30 24864620 7 33 135 31565
-1.1278826 31.523682 -0.019255962 29 24964290 7 33 142 31544
-0.93170893 31.438049 -0.018982993 31 25057700 7 33 171 31452
-0.73914373 31.45817 -0.019027499 29 25156840 7 33 112 31467
-0.54647088 31.48311 -0.019089807 28 25256080 7 33 168 31488
-0.35298052 31.458872 -0.019009696 36 25353850 9 33 136 31461
-0.15989995 31.451447 -0.018982993 35 25448210 9 33 205 31452
0.033066846 31.433836 -0.018929586 27 25547380 6 33 154 31434
0.22600517 31.442041 -0.018956289 34 25646040 8 33 220 31443
0.41879258 31.430063 -0.018926619 30 25739880 7 33 171 31433
0.61245251 31.468893 -0.019051235 39 25837970 9 33 168 31475
0.80443066 31.421556 -0.018923651 42 25937410 10 33 212 31432
1.0000368 31.504984 -0.01918772 32 26034100 8 33 148 31521
1.1950697 31.544222 -0.019324204 54 26129540 14 33 182 31567
1.3870158 31.50033 -0.019217391 28 26229300 7 33 162 31531
1.5808734 31.503212 -0.019252995 33 26328220 8 33 161 31543
1.775437 31.515882 -0.019321237 24 26422200 6 33 123 31566
1.9576823 31.326742 -0.018793102 36 26519570 9 33 158 31388
2.1552725 31.392956 -0.019027499 47 26618630 11 33 176 31467
2.3495712 31.402075 -0.019095741 29 26717630 7 33 163 31490
2.5441434 31.41099 -0.01916695 27 26810630 7 33 115 31514
2.7389138 31.418697 -0.019238159 27 26909800 7 33 163 31538
2.9366624 31.455065 -0.01939838 17 27009240 4 33 107 31592
3.1257491 31.397646 -0.019282665 35 27104550 9 33 195 31553
3.3253877 31.444504 -0.019481458 30 27201640 7 33 140 31620
3.5149274 31.393694 -0.019392448 28 27300490 7 33 119 31590
3.7009177 31.315924 -0.019226292 29 27399050 7 33 175 31534
3.8904068 31.271786 -0.019163983 25 27493580 6 33 114 31513
4.0766439 31.204689 -0.019036399 33 27591500 8 33 189 31470
4.2635608 31.146393 -0.018938487 28 27686770 7 33 246 31437
4.4635172 31.182009 -0.019125411 35 27785550 9 33 158 31500
4.6569786 31.168871 -0.019169917 45 27884250 11 33 164 31515
4.8389106 31.080423 -0.018991895 39 27980410 9 33 267 31455
5.0387983 31.107401 -0.019163983 33 28076430 8 33 179 31513
5.2700629 31.316515 -0.019887945 44 28175620 11 33 141 31757
5.4732971 31.34762 -0.020080803 38 28274980 10 33 139 31822
5.6690998 31.333126 -0.020140145 49 28368470 12 33 144 31842
5.8612494 31.29775 -0.020140145 39 28465930 10 33 113 31842
6.0381618 31.18364 -0.019905748 69 28565520 18 33 191 31763
6.2331133 31.164633 -0.019962121 38 28662490 10 33 203 31782
6.3989539 31.003382 -0.01959124 36 28758270 9 33 215 31657
6.6311078 31.16111 -0.020190585 41 28856690 10 33 197 31859
6.8061247 31.046576 -0.019968055 32 28954470 8 33 217 31784
6.9687605 30.881321 -0.019594206 47 29049490 12 33 282 31658
7.2802038 31.363995 -0.021196416 31 29147660 8 33 134 32198
7.4722805 31.31776 -0.021193448 46 29247300 12 33 200 32197
7.6769176 31.322798 -0.021350704 40 29345210 10 33 178 32250
7.8909245 31.362385 -0.021617739 23 29439480 6 33 140 32340
8.0934591 31.353075 -0.021739388 25 29538360 6 33 134 32381
8.280057 31.281557 -0.021674111 17 29637930 4 33 163 32359
8.472888 31.234022 -0.02168598 17 29733540 4 33 182 32363
8.6555424 31.149651 -0.021588068 10 29831430 2 33 189 32330
8.0623236 28.339338 -0.013084487 10 29930100 2 33 203 29464
8.2371769 28.293175 -0.013096355 13 30026360 3 33 202 29468
8.4231834 28.284271 -0.013226906 15 30121130 3 33 196 29512
8.596282 28.231098 -0.013223939 11 30220090 2 33 168 29511
8.7948971 28.259935 -0.013479105 17 30319510 4 33 150 29597
8.9705553 28.213062 -0.013502842 27 30415120 6 33 131 29605
9.1753082 28.255455 -0.013808449 24 30511760 5 33 145 29708
9.3695898 28.26222 -0.014007241 19 30611650 4 33 143 29775
9.5713501 28.288502 -0.014271309 17 30709560 4 33 106 29864
9.7649755 28.287848 -0.014455266 14 30802800 3 33 111 29926
9.9672537 28.309462 -0.0147134 25 30902370 5 33 118 30013
10.158339 28.296711 -0.014867688 17 31001000 4 33 120 30065
10.331085 28.23197 -0.014861753 19 31097240 4 33 110 30063
10.532419 28.243944 -0.015102085 17 31193910 4 33 101 30144
10.737129 28.261984 -0.015366153 20 31292340 4 33 108 30233
10.953643 28.307484 -0.015722198 24 31392010 5 33 90 30353
11.157187 28.316032 -0.015965497 15 31485280 3 33 86 30435
11.338166 28.265602 -0.016024839 11 31583540 2 33 97 30455
11.544648 28.276974 -0.016285939 12 31683100 3 33 104 30543
11.752463 28.288717 -0.016552975 10 31779210 2 33 102 30633
11.939833 28.249233 -0.016659789 5 31875260 1 33 95 30669
12.159545 28.283846 -0.017009901 16 31974400 4 33 103 30787
12.361704 28.274675 -0.01722353 15 32072890 3 33 90 30859
12.571518 28.280533 -0.017490564 17 32166880 4 33 95 30949
12.777751 28.275766 -0.017727928 21 32265340 5 33 92 31029
12.987736 28.276798 -0.01798903 8 32363850 2 33 89 31117
13.199481 28.279036 -0.018259032 14 32460870 3 33 90 31208
13.407886 28.271603 -0.01850233 10 32556180 2 33 94 31290
13.613657 28.256369 -0.018724859 7 32655220 1 33 81 31365
13.790295 28.179491 -0.018748596 13 32754760 3 33 83 31373
14.001215 28.171358 -0.019003762 7 32849270 1 33 91 31459
14.219763 28.175978 -0.019306403 9 32946410 2 33 99 31561
14.448012 28.196774 -0.019668384 6 33044760 1 33 79 31683
14.691355 28.243326 -0.020122342 9 33142110 2 33 93 31836
14.896125 28.212784 -0.020324102 11 33237060 3 33 83 31904
15.163889 28.298019 -0.02092048 9 33335820 2 33 103 32105
15.349179 28.226404 -0.020994656 14 33434890 3 33 105 32130
15.556867 28.194735 -0.021208284 7 33529700 2 33 102 32202
15.767184 28.165937 -0.021436747 8 33626340 2 33 89 32279
15.978721 28.137358 -0.021671144 6 33725710 1 33 105 32358
16.237415 28.188692 -0.022184446 16 33823310 4 33 105 32531
16.431259 28.124796 -0.022309063 7 33918130 2 33 97 32573
16.718716 28.217882 -0.022979617 6 34017270 1 33 99 32799
17.08106 28.430214 -0.024071492 3 34114790 1 33 118 33167
17.249981 28.31633 -0.024041822 20 34209580 5 33 109 33157
17.479626 28.300989 -0.024359297 6 34306510 2 33 110 33264
17.673645 28.226259 -0.024475012 11 34405280 3 33 106 33303
17.902237 28.205091 -0.024783587 6 34504460 2 33 112 33407
18.124739 28.172085 -0.025056556 5 34598060 1 33 123 33499
18.421244 28.250492 -0.025730077 10 34696640 3 33 131 33726
18.620701 28.176975 -0.025872495 4 34792330 1 33 137 33774
18.871698 28.179346 -0.026290851 6 34890970 2 33 127 33915
19.143637 28.20948 -0.02681602 7 34989360 2 33 103 34092
19.399088 28.21179 -0.02724921 4 35085450 1 33 120 34238
19.66786 28.230074 -0.027747674 14 35181390 4 33 119 34406
19.979679 28.305756 -0.028462734 12 35280700 3 33 113 34647
20.240232 28.304646 -0.028907793 13 35379890 4 33 107 34797
20.443443 28.221222 -0.029059114 7 35474340 2 33 124 34848
20.740456 28.264561 -0.029682195 14 35573350 4 33 118 35058
20.923635 28.150412 -0.029732635 8 35671710 2 33 108 35075
21.272793 28.256376 -0.030604949 12 35769350 4 33 96 35369
21.493063 28.187344 -0.030836379 12 35866690 4 33 110 35447
21.748125 28.161783 -0.031236932 13 35965510 4 33 108 35582
22.044954 28.186924 -0.031836279 12 36064390 4 33 98 35784
22.257847 28.102083 -0.032029137 18 36158890 6 33 99 35849
22.55687 28.123341 -0.032631449 15 36257620 5 33 92 36052
8.0347071 9.8919849 0.03652468 18 36357270 6 33 107 12744
8.1409855 9.8981085 0.036311053 6 36454930 2 33 119 12816
23.574324 28.308138 -0.034966521 3 36550540 1 33 96 36839
23.837822 28.269985 -0.035381909 6 36649930 2 33 106 36979
24.080309 28.204563 -0.035699382 6 36749100 2 33 115 37086
26.516905 30.675379 -0.04597133 13 36844640 6 33 131 40548
26.850174 30.678398 -0.046627048 40 36941970 18 33 162 40769
27.157946 30.64854 -0.047164086 43 37040790 19 33 171 40950
27.55183 30.711334 -0.048080906 38 37139860 17 33 183 41259
27.824465 30.634972 -0.048454754 57 37233920 26 33 170 41385
28.375385 30.858961 -0.050048064 31 37332860 14 33 125 41922
24.710443 26.544388 -0.033266399 55 37432100 19 33 139 36266
24.585485 26.087341 -0.032023203 42 37527380 14 33 128 35847
24.685038 25.873049 -0.031765066 75 37624650 25 33 139 35760
24.793306 25.66931 -0.031551439 41 37723270 13 33 136 35688
24.890919 25.455921 -0.031299241 104 37821180 34 33 126 35603
25.05368 25.309822 -0.031328909 75 37915270 25 33 140 35613
25.382635 25.329386 -0.032058805 14 38015260 5 33 84 35859
25.63158 25.265831 -0.032450456 6 38114150 2 33 117 35991
25.84989 25.170172 -0.032714527 13 38209430 4 33 90 36080
26.300779 25.296694 -0.033936951 60 38305620 21 33 117 36492
26.659941 25.329077 -0.034773663 60 38405160 21 33 124 36774
26.906731 25.251242 -0.03514751 61 38503250 22 33 123 36900
16.822781 15.594446 0.0062755495 10 38596150 2 33 144 22939
27.683636 25.348661 -0.037034556 17 38695260 6 33 127 37536
27.83865 25.17832 -0.037034556 16 38793890 6 33 107 37536
24.260908 21.673244 -0.022187414 6 38890080 1 33 114 32532
17.521343 15.460078 0.0050056498 12 38985430 2 33 114 23367
17.570642 15.312857 0.005183673 8 39083770 1 33 104 23307
17.777952 15.302614 0.0047386149 22 39181960 4 33 124 23457
17.722948 15.066937 0.0053171907 19 39276790 3 33 109 23262
17.769114 14.919326 0.0054952139 24 39374810 4 33 88 23202
17.881876 14.827888 0.0054121362 8 39473450 1 33 92 23230
17.969427 14.715354 0.0054240045 14 39569890 2 33 107 23226
17.770136 14.370893 0.0065277489 17 39664800 3 33 106 22854
17.557148 14.02133 0.0076700654 24 39763710 5 33 91 22469
17.592598 13.873706 0.0078599574 27 39863450 5 33 119 22405
0 0 -0 40 39958370 8 33 132 0
0 0 -0 3 40056050 0 33 139 0
0 0 -0 8 40153720 0 33 188 0
18.751938 14.055561 0.0048038899 12 40251240 2 33 311 23435
18.869982 13.964032 0.0046852077 16 40347330 3 33 342 23475
19.0086 13.88692 0.0044893823 13 40446390 2 33 357 23541
19.136436 13.801026 0.004332128 22 40544630 4 33 444 23594
19.404865 13.81442 0.0036615736 14 40639400 3 33 626 23820
19.461445 13.675546 0.0037624536 10 40738160 2 33 303 23786
19.434063 13.478934 0.0041630059 12 40836050 2 33 180 23651
19.513102 13.357177 0.0041748742 16 40933440 3 33 153 23647
16.620768 11.22807 0.014823636 36 41027220 8 33 209 20058
0 0 -0 4 41125940 0 33 163 0
17.345444 11.410173 0.012734829 11 41225960 2 33 162 20762
17.171881 11.145638 0.013595275 38 41321250 8 33 156 20472
17.629843 11.289758 0.012221528 22 41417010 5 33 145 20935
18.124022 11.450032 0.0107291 7 41516070 1 33 158 21438
18.259285 11.379337 0.010500636 10 41615260 2 33 131 21515
18.390099 11.304792 0.010287008 7 41709580 1 33 115 21587
18.528381 11.233736 0.010046677 10 41808190 2 33 123 21668
18.69566 11.178856 0.0097054653 7 41902830 1 33 127 21783
19.099842 11.262026 0.0085483138 33 42003300 7 33 137 22173
19.571438 11.37885 0.0071656662 13 42101980 2 33 113 22639
0 0 -0 4 42198100 0 33 123 0
0 0 -0 3 42294590 0 33 153 0
20.466837 11.400638 0.0048246593 13 42393620 2 33 107 23428
20.81077 11.425479 0.003895971 6 42492610 1 33 111 23741
21.066057 11.397984 0.0032699222 8 42586160 1 33 124 23952
21.426792 11.423769 0.0022907939 7 42684840 1 33 102 24282
21.609798 11.351608 0.0019110109 10 42784140 2 33 119 24410
21.752758 11.256948 0.0016647453 15 42880270 3 33 141 24493
22.222332 11.327635 0.00032957041 13 42976260 2 33 101 24943
22.426365 11.25882 -0.00011845496 11 43075280 2 33 91 25094
21.100193 10.431396 0.0044982834 29 43173560 5 33 116 23538
28.483574 13.864906 -0.019656515 9 43268130 2 33 79 31679
28.447271 13.631965 -0.019258929 26 43366320 6 33 88 31545
28.419136 13.404685 -0.018893981 20 43465530 5 33 90 31422
28.512642 13.23553 -0.018932553 30 43562830 7 33 81 31435
28.674271 13.097309 -0.01919662 15 43658130 4 33 84 31524
28.788755 12.936696 -0.01930937 8 43756620 2 33 84 31562
30.718792 13.578095 -0.025314689 11 43854960 3 33 72 33586
30.918915 13.440383 -0.025694473 14 43950330 4 33 104 33714
30.996204 13.248449 -0.025679637 23 44047640 7 33 93 33709
31.226261 13.120768 -0.0261603 12 44145890 3 33 81 33871
36.371189 15.020768 -0.042419765 22 44244750 9 33 141 39351
36.441357 14.788667 -0.042351522 26 44339190 10 33 121 39328
36.463604 14.537753 -0.042134926 22 44437480 9 33 129 39255
36.551189 14.313378 -0.04213196 20 44537160 8 33 136 39254
29.637184 11.396528 -0.019876076 41 44632030 10 33 204 31753
30.639294 11.566596 -0.02283423 38 44727920 10 33 221 32750
30.744383 11.391234 -0.022944013 33 44827410 9 33 180 32787
31.333414 11.391328 -0.024584794 19 44925020 5 33 146 33340
31.647612 11.286193 -0.025356228 18 45019030 5 33 220 33600
31.35191 10.964365 -0.024210945 25 45119170 7 33 228 33214
32.744801 11.226496 -0.028370757 29 45217120 9 33 266 34616
54.133507 18.189484 -0.095105767 20 45312750 17 33 228 57108
0 0 -0 13 45409190 0 33 269 0
33.026798 10.647953 -0.028622955 20 45507290 6 33 270 34701
35.312477 11.146172 -0.035533227 37 45607180 13 33 256 37030
32.922802 10.170137 -0.027901962 43 45699960 13 33 262 34458
33.466076 10.113449 -0.02939439 46 45798450 15 33 280 34961
33.695324 9.9575119 -0.029913625 49 45898840 15 33 241 35136
37.814808 10.923109 -0.042449433 37 45995100 15 33 179 39361
34.380875 9.7029829 -0.031658255 27 46091300 9 33 194 35724
40.605812 11.191341 -0.050635539 16 46191240 7 33 163 42120
36.220093 9.7438164 -0.036951479 18 46289650 7 33 160 37508
37.204842 9.7643366 -0.039790951 9 46384240 3 33 122 38465
57.219856 14.642828 -0.10090932 10 46482400 10 33 117 59064
38.738472 9.6603222 -0.044122852 8 46580190 3 33 123 39925
39.99712 9.7139254 -0.047787167 207 46677080 94 33 114 41160
41.16539 9.7305803 -0.051169612 538 46771720 132 33 136 42300
42.545834 9.7816534 -0.055192936 790 46871540 149 33 128 43656
43.694183 9.7638006 -0.058504172 620 46969670 139 33 124 44772
45.183956 9.8060246 -0.062847942 310 47063490 116 33 145 46236
46.570156 9.8080626 -0.066871263 244 47162280 107 33 106 47592
47.816948 9.764636 -0.070467338 451 47260340 132 33 127 48804
49.370979 9.7668209 -0.074989133 123 47358700 82 33 145 50328
42.314266 8.1012793 -0.053492814 10 47453840 5 33 178 43083
22.0425 4.0798612 0.007824352 18 47551890 3 33 127 22417
22.042509 3.9401348 0.0078985291 36 47651850 7 33 238 22392
22.130325 3.8158562 0.0077056699 10 47746110 2 33 122 22457
22.142469 3.6781926 0.0077383076 7 47844520 1 33 105 22446
22.120186 3.5351572 0.0078718252 10 47943920 2 33 91 22401
0 0 -0 3 48042510 0 33 92 0
0 0 -0 3 48136200 0 33 88 0
22.154774 3.1236279 0.0079519358 12 48235230 2 33 98 22374
22.216139 2.9933727 0.007824352 9 48332730 2 33 84 22417
22.28467 2.8635018 0.0076730326 2 48427510 0 33 78 22468
0 0 -0 5 48525320 0 33 248 0
0 0 -0 5 48624220 0 33 310 0
0 0 -0 5 48723530 0 33 191 0
0 0 -0 5 48816900 0 33 130 0
0 0 -0 3 48916440 0 33 87 0
30.797932 2.8099589 -0.017422322 6 49010630 1 33 204 30926
0 0 -0 3 49110020 0 33 291 0
38.041656 3.0007565 -0.038885999 7 49208530 3 33 406 38160
0 0 -0 10 49304670 0 33 1743 0
0 0 -0 6 49401750 0 33 100 0
50.17038 3.029608 -0.074793302 8 49500550 5 33 99 50262
0 0 -0 4 49599360 0 33 141 0
64.317406 3.0924098 -0.1167178 171 49693170 113 33 380 64392
0 0 -0 3 49792290 0 33 140 0
0 0 -0 2 49890780 0 33 127 0
0 0 -0 3 49988690 0 33 143 0
0 0 -0 7 50083360 0 33 168 0
0 0 -0 5 50183370 0 33 182 0
0 0 -0 3 50281210 0 33 129 0
0 0 -0 4 50375600 0 33 128 0
0 -0 -0 3 50472880 0 33 120 0
0 -0 -0 3 50572020 0 33 125 0
0 -0 -0 3 50669610 0 33 128 0
0 -0 -0 4 50765450 0 33 122 0
0 -0 -0 3 50863040 0 33 196 0
63.466763 -2.0140736 -0.11406822 25 50962830 27 33 101 63499
0 -0 -0 3 51056880 0 33 131 0
53.839603 -2.3703046 -0.085563719 120 51154860 91 33 73 53892
53.567368 -2.6877372 -0.084801182 367 51253230 128 33 123 53635
53.629742 -3.0208681 -0.08503855 368 51352160 128 33 123 53715
41.38908 -2.5863431 -0.048706952 6 51446480 3 33 134 41470
0 -0 -0 9 51545800 0 33 126 0
0 -0 -0 10 51644110 0 33 169 0
31.716986 -2.568923 -0.020077836 13 51739770 3 33 121 31821
31.168646 -2.7171197 -0.018493429 15 51836440 3 33 75 31287
30.801908 -2.8756936 -0.017451992 1813 51936780 173 33 216 30936
30.87921 -3.0741451 -0.01773683 955 52035160 140 33 116 31032
31.097441 -3.2886896 -0.018445956 32 52129560 8 33 70 31271
31.107483 -3.4828868 -0.018537935 27 52228270 6 33 82 31302
31.055735 -3.6701729 -0.018448923 22 52327340 5 33 69 31272
31.064386 -3.8646083 -0.018543869 12 52422820 3 33 84 31304
0 -0 -0 7 52520140 0 33 89 0
31.001741 -4.243762 -0.018505298 11 52618220 2 33 98 31291
0 -0 -0 3 52718360 0 33 86 0
0 -0 -0 11 52811960 0 33 164 0
0 -0 -0 5 52911550 0 33 137 0
0 -0 -0 4 53010480 0 33 141 0
14.777102 -2.487011 0.029875508 22 53106920 6 33 105 14985
14.77634 -2.5802145 0.029831002 16 53201440 5 33 84 15000
14.855681 -2.6881001 0.029543197 102 53300810 31 33 84 15097
14.866429 -2.7843559 0.029460121 15 53398470 4 33 82 15125
14.8687 -2.879324 0.029400779 7 53493380 2 33 80 15145
14.790937 -2.95854 0.029581768 217 53590770 66 33 79 15084
14.891987 -3.0738981 0.029219789 32 53691010 9 33 86 15206
14.877736 -3.1662564 0.029204953 26 53788270 8 33 86 15211
14.859982 -3.2579131 0.029199019 23 53882710 7 33 97 15213
14.85532 -3.3525527 0.029151546 13 53981800 4 33 63 15229
14.897786 -3.4583361 0.028958688 4 54079960 1 33 51 15294
14.844187 -3.5420239 0.029056601 10 54175200 3 33 73 15261
14.798863 -3.6273267 0.02912781 10 54272940 3 33 64 15237
14.818028 -3.728554 0.029000226 10 54371760 3 33 77 15280
14.753236 -3.8086586 0.02912781 28 54468400 8 33 101 15237
14.817559 -3.9223948 0.028857809 14 54564440 4 33 78 15328
14.84726 -4.0279002 0.028691653 29 54662210 9 33 87 15384
14.881039 -4.1352558 0.028510662 29 54762490 9 33 78 15445
14.839034 -4.2218347 0.028561102 21 54857260 6 33 76 15428
14.728358 -4.288209 0.028822202 8 54955590 2 33 66 15340
14.758314 -4.3953381 0.028647147 20 55055410 6 33 84 15399
14.733937 -4.4866843 0.028638246 13 55152300 4 33 56 15402
14.698491 -4.5746288 0.028661983 11 55247140 3 33 72 15394
14.823577 -4.7135124 0.028184285 26 55345310 8 33 64 15555
14.97699 -4.8636756 0.027614612 72 55444740 21 33 69 15747
14.795942 -4.9054499 0.028086374 14 55540300 4 33 82 15588
14.74283 -4.988452 0.028157583 18 55637950 5 33 76 15564
34.0672 -11.759904 -0.032595843 23 55736690 8 33 286 36040
33.75576 -11.884698 -0.031845178 25 55835420 9 33 337 35787
32.540539 -11.681767 -0.02824614 38 55929670 12 33 307 34574
32.45792 -11.877432 -0.028213503 26 56028810 8 33 365 34563
31.359381 -11.694136 -0.024967544 33 56124540 10 33 326 33469
31.151487 -11.834839 -0.024537321 29 56222830 9 33 315 33324
31.10906 -12.037666 -0.024635233 37 56322990 11 33 306 33357
30.340548 -11.954856 -0.022421811 26 56418790 7 33 326 32611
29.254974 -11.735015 -0.01918772 42 56515120 11 33 305 31521
30.439676 -12.427576 -0.023216981 21 56613510 6 33 239 32879
28.100327 -11.674201 -0.015947696 15 56712650 3 33 301 30429
28.709785 -12.134481 -0.018143317 32 56807290 8 33 258 31169
28.563131 -12.279608 -0.017911887 36 56905390 9 33 174 31091
28.533976 -12.475066 -0.018063206 24 57005790 6 33 193 31142
26.456617 -11.76077 -0.011568322 32 57102380 7 33 216 28953
26.245443 -11.860291 -0.011117329 33 57197980 7 33 272 28801
26.163088 -12.016933 -0.011087659 36 57296810 8 33 265 28791
25.916693 -12.096883 -0.010523918 43 57396050 9 33 254 28601
25.459782 -12.074426 -0.0092688538 26 57490820 5 33 236 28178
25.230261 -12.155765 -0.0087585198 32 57588610 6 33 228 28006
25.012383 -12.240458 -0.0082867583 34 57688600 7 33 258 27847
23.612358 -11.735474 -0.0038984835 25 57785260 5 33 273 26368
23.438133 -11.828774 -0.0035602392 32 57880200 6 33 257 26254
23.225386 -11.900773 -0.0030944115 45 57978440 9 33 275 26097
22.884005 -11.903698 -0.0021983609 40 58078780 8 33 249 25795
22.664623 -11.96685 -0.0017087966 42 58173190 8 33 300 25630
22.364243 -11.984309 -0.00094626343 32 58271130 6 33 239 25373
21.67445 -11.786435 0.0011336424 41 58371370 8 33 269 24672
21.517666 -11.872828 0.0014184797 31 58469210 6 33 278 24576
21.344065 -11.948462 0.001759691 28 58564130 5 33 264 24461
20.49556 -11.639229 0.0044033374 20 58662620 4 33 328 23570
20.359634 -11.727833 0.0046228995 25 58762580 5 33 345 23496
20.259659 -11.836394 0.0047178455 22 58857200 4 33 324 23464
20.200417 -11.968638 0.0046703722 34 58954780 7 33 308 23480
19.947445 -11.984728 0.0052904868 30 59054700 6 33 286 23271
19.945271 -12.150598 0.0050412542 35 59152710 7 33 305 23355
19.2484 -11.888633 0.0072101718 25 59247000 5 33 293 22624
19.180176 -12.009699 0.0071923696 44 59346310 9 33 341 22630
18.634163 -11.827608 0.0088509535 27 59446080 6 33 318 22071
18.422476 -11.852451 0.0093405172 30 59541020 6 33 307 21906
18.325111 -11.949427 0.0094265621 34 59638490 7 33 373 21877
18.367413 -12.138276 0.0090141417 21 59737850 4 33 325 22016
17.627876 -11.805605 0.011387786 21 59836960 4 33 313 21216
17.826513 -12.097722 0.010414592 29 59930380 6 33 341 21544
17.65966 -12.143419 0.010746902 37 60028810 8 33 304 21432
17.373947 -12.104639 0.011509435 41 60128950 9 33 305 21175
17.221733 -12.156234 0.011791306 22 60224420 5 33 338 21080
17.015858 -12.168029 0.012269001 26 60320630 5 33 330 20919
16.787815 -12.161333 0.012829775 36 60420020 8 33 335 20730
16.285576 -11.950568 0.014402314 33 60518870 7 33 335 20200
16.251268 -12.0795 0.014256928 36 60614610 8 33 355 20249
16.054611 -12.086967 0.014710887 40 60712520 9 33 343 20096
16.051712 -12.23982 0.014443853 50 60811710 11 33 316 20186
15.968393 -12.331968 0.014473523 35 60908700 8 33 315 20176
15.926297 -12.456206 0.01434594 48 61003940 11 33 313 20219
15.746875 -12.472361 0.014734624 56 61103650 12 33 325 20088
15.512472 -12.442362 0.015333969 33 61201620 7 33 324 19886
15.239449 -12.37781 0.016084634 57 61296650 12 33 346 19633
13.97225 -11.491619 0.020659834 26 61394770 6 33 338 18091
14.767505 -12.298323 0.017315963 31 61495110 7 33 350 19218
14.734577 -12.424802 0.017149808 35 61592190 8 33 341 19274
14.640571 -12.500044 0.01721805 37 61688030 8 33 321 19251
14.377491 -12.428768 0.017947946 40 61786000 9 33 322 19005
13.264764 -11.609882 0.02203358 35 61886020 9 33 309 17628
13.632615 -12.080347 0.020291919 27 61981510 7 33 341 18215
13.06249 -11.719034 0.022267979 38 62078470 10 33 306 17549
13.469279 -12.233956 0.020348294 22 62178490 5 33 310 18196
12.903709 -11.865588 0.022324352 35 62276000 9 33 316 17530
12.084076 -11.249557 0.025350748 53 62371060 15 33 263 16510
12.070859 -11.376301 0.025122285 33 62469920 9 33 319 16587
0 -0 -0 15 62569540 0 33 324 0
12.23532 -11.81813 0.023864254 43 62666580 11 33 352 17011
12.072485 -11.804894 0.024238102 35 62763250 10 33 335 16885
12.006221 -11.885078 0.024211399 56 62863160 16 33 329 16894
12.233983 -12.260062 0.022947434 32 62961870 8 33 322 17320
12.111491 -12.287183 0.023146227 30 63056480 8 33 355 17253
12.010756 -12.335474 0.02325304 36 63155920 9 33 316 17217
11.892554 -12.364975 0.02343403 38 63252420 10 33 365 17156
11.864676 -12.488461 0.023226338 37 63351630 10 33 308 17226
11.757714 -12.528942 0.023356887 29 63452270 8 33 286 17182
11.695573 -12.616984 0.023291612 38 63548130 10 33 293 17204
11.588222 -12.656058 0.023422163 45 63644850 12 33 307 17160
11.48687 -12.700967 0.023526009 62 63744740 16 33 306 17125
11.388069 -12.748092 0.023617988 63 63843350 17 33 323 17094
10.954335 -12.415074 0.025211297 30 63939270 8 33 326 16557
10.435776 -11.974705 0.027208125 41 64037810 12 33 393 15884
10.399289 -12.081711 0.027039003 38 64138740 11 33 382 15941
10.167565 -11.960158 0.027759997 34 64235260 10 33 441 15698
9.8226271 -11.69914 0.029012095 67 64331420 20 33 380 15276
9.7493801 -11.75765 0.02901803 67 64431170 20 33 325 15274
8.9332199 -10.908968 0.032501351 27 64531000 9 33 330 14100
9.618825 -11.894288 0.028949786 63 64625040 19 33 264 15297
8.7843246 -10.9998 0.032569595 43 64723630 14 33 371 14077
8.6305904 -10.944349 0.032982014 54 64823470 17 33 365 13938
8.5350122 -10.960807 0.033118498 87 64920930 28 33 334 13892
8.4828358 -11.032789 0.033044323 77 65016270 25 33 298 13917
8.4113522 -11.079852 0.033062126 94 65114720 30 33 255 13911
8.3522062 -11.143257 0.03301762 95 65215380 30 33 236 13926
8.3068752 -11.225644 0.032901905 81 65310020 26 33 240 13965
8.272645 -11.324043 0.032726847 78 65407860 24 33 196 14024
8.1298866 -11.273208 0.033097729 106 65506600 34 33 263 13899
8.0356236 -11.287849 0.033225313 91 65604890 29 33 196 13856
7.9610372 -11.329579 0.033252016 113 65699350 36 33 260 13847
7.8851008 -11.369176 0.033284653 72 65798670 23 33 309 13836
7.8191466 -11.42312 0.033263884 57 65897210 18 33 174 13843
7.7125216 -11.417022 0.033456743 80 65993420 26 33 236 13778
7.6206894 -11.431681 0.033572458 72 66089380 23 33 270 13739
7.4751086 -11.363771 0.033978947 109 66189700 35 33 265 13602
7.3872738 -11.381743 0.034076858 82 66288240 27 33 274 13569
7.3334765 -11.45212 0.033987846 88 66382730 28 33 205 13599
7.2406368 -11.461395 0.034112465 94 66481560 30 33 212 13557
7.1590672 -11.487785 0.03417477 107 66581130 34 33 199 13536
7.1025848 -11.554497 0.034094661 87 66677500 28 33 204 13563
7.0611067 -11.646601 0.033925537 84 66775540 27 33 172 13620
7.000289 -11.70773 0.033863232 84 66873520 27 33 183 13641
6.9481297 -11.784058 0.033747517 99 66973140 32 33 188 13680
6.8847408 -11.84203 0.033694107 83 67066680 27 33 227 13698
6.8159285 -11.890991 0.033670373 89 67166610 29 33 228 13706
6.7595658 -11.962189 0.033569492 98 67266200 31 33 217 13740
6.7254581 -12.074201 0.033329159 88 67363750 28 33 227 13821
6.7325811 -12.26338 0.032827727 61 67460010 19 33 149 13990
6.6567316 -12.30358 0.032830697 91 67559580 29 33 210 13989
6.6328659 -12.441257 0.03250432 67 67657630 21 33 155 14099
6.5903521 -12.546348 0.032287724 47 67753630 15 33 133 14172
6.4502778 -12.464877 0.032694209 48 67851410 15 33 287 14035
6.388206 -12.53273 0.032599263 82 67949450 26 33 260 14067
6.3152246 -12.579735 0.03257256 81 68046340 25 33 241 14076
6.2405772 -12.623626 0.032554761 64 68142810 20 33 214 14082
6.1892633 -12.715627 0.032376736 79 68242350 25 33 193 14142
6.0450053 -12.61539 0.032830697 40 68342830 13 33 261 13989
5.8386469 -12.379107 0.033726744 56 68437280 18 33 267 13687
5.7672119 -12.424676 0.033694107 77 68536470 25 33 283 13698
5.6721702 -12.418898 0.033827625 66 68635260 21 33 333 13653
5.5319185 -12.311175 0.034290485 90 68734100 29 33 349 13497
5.4449544 -12.319278 0.034373563 74 68829340 24 33 309 13469
5.3409562 -12.287342 0.034584224 78 68928420 25 33 283 13398
5.2627106 -12.313446 0.034604993 88 69026960 29 33 317 13391
5.1990671 -12.374084 0.034513015 79 69121800 25 33 259 13422
5.0982308 -12.345675 0.034705874 64 69219890 21 33 314 13357
4.9279957 -12.144149 0.035450604 102 69320450 33 33 357 13106
4.9126444 -12.32278 0.034975875 65 69418300 21 33 276 13266
4.7975593 -12.252128 0.035296317 100 69512360 32 33 292 13158
4.7262392 -12.291601 0.03526368 79 69612430 26 33 294 13169
4.6630921 -12.353114 0.035159834 84 69710860 27 33 253 13204
4.6056218 -12.431191 0.035002578 97 69807620 31 33 216 13257
4.5251584 -12.447939 0.035038184 76 69904260 24 33 214 13245
4.4402962 -12.451923 0.035112362 76 70004530 24 33 226 13220
4.3859277 -12.542177 0.03491357 86 70102700 28 33 237 13287
4.3286719 -12.626555 0.034732576 59 70197930 19 33 171 13348
4.2976189 -12.791273 0.034299389 34 70297100 11 33 143 13494
4.2303095 -12.851597 0.034192573 74 70392660 24 33 147 13530
4.1117887 -12.754536 0.034575325 71 70492420 23 33 175 13401
4.0752921 -12.912077 0.034162901 51 70591790 16 33 140 13540
3.9912658 -12.921553 0.034210376 59 70689450 19 33 155 13524
3.8482614 -12.735208 0.034863129 65 70785470 21 33 243 13304
